-0.0607832034 0.7624044799 -0.4279680246
-0.0774575259 0.7572062385 -0.4112558016
-0.0428604228 0.7676378076 -0.4444170939
-0.0954368072 0.8201313787 -0.6746482412
-0.0748733064 0.8057098503 -0.6051726996
-0.0639367341 0.8156275271 -0.6425901161
-0.0649927438 0.8250655137 -0.6826017435
-0.0627953340 0.8263351147 -0.6867190405
0.0677976653 0.2315414548 -0.9271754876
0.1220012331 0.2138263412 -0.9294082979
0.0867899774 0.2458131544 -0.9252284415
0.1105684755 0.2229684678 -0.9282168953
0.0336155174 0.2398176446 -0.9261533172
0.0685593342 0.2453932883 -0.9253275314
-0.0072680797 0.6119618423 0.6371149020
0.0297538489 0.6143278791 0.7009681567
0.0103466517 0.6149280360 0.7124737524
0.0897920473 0.6137602959 0.6968772710
0.0177597170 0.6157934144 0.7348299104
0.0348544421 0.6164404576 0.7534273790
0.0244156781 0.6135421313 0.6808960525
0.0776757382 0.6133116093 0.6839383150
0.0676392478 0.6143936283 0.6079252041
0.0486722600 0.6121551502 0.6486745691
0.0070529648 0.6134938082 0.5881759312
0.0368647017 0.6154438595 0.5617423570
0.0239368881 0.6125099503 0.6232909438
0.1045720316 0.6128994863 0.6689559647
0.0453207426 0.6133375802 0.6180284972
0.0536109306 0.6141159487 0.6050152991
0.2357806168 -0.8444299872 -0.7782792961
0.2597318061 -0.8348991349 -0.7459994630
0.2481701082 -0.8415471318 -0.7780427006
0.0506575604 0.6304773582 0.3059441871
0.0495962945 0.6275928928 0.3235987912
0.0271483769 0.6415040346 0.2364704872
0.0651915179 0.6307914099 0.3050597512
0.0428927637 0.6345134430 0.2805752645
-0.0166356510 0.6239701742 0.3411009228
0.0881295669 0.6249612491 0.3519483074
0.0986862878 0.6188471654 0.4100732054
0.0774193733 0.6201499161 0.3937365631
0.0689830311 0.6181721931 0.4100756228
0.0953699038 0.6186827932 0.4108877439
0.0798365524 0.6272594657 0.3292011155
0.0513186380 0.6253949449 0.3403317582
-0.0920245164 0.7932151711 -0.8013348125
-0.0434027500 0.7541983322 -0.8202449553
-0.0295377918 0.7794943070 -0.8126462182
-0.0545397702 0.7728576671 -0.8130346324
-0.0338449929 0.7825273099 -0.8112866047
-0.0497814854 0.7931393577 -0.8058528263
0.2741634429 -0.7317808079 -0.3311007670
0.3168595744 -0.7098646949 -0.3125024562
0.2598599254 -0.7283671298 -0.2950435079
0.2489375595 -0.7212429090 -0.2497484814
0.2782328534 -0.7362340242 -0.3550492672
0.2714340458 -0.7342364128 -0.3364359799
0.2779250459 -0.7126406548 -0.2618011977
0.3005974216 -0.7171119682 -0.3152607484
0.2540634568 -0.7320427197 -0.3003215216
0.3039304042 -0.6957085362 -0.2336222700
0.2684043274 -0.7096344843 -0.2332508943
0.3299436074 -0.6908483884 -0.2575497507
0.2589117216 -0.7083388587 -0.2109152860
0.3024977047 -0.6814302427 -0.1678292610
0.2662518965 -0.7062672300 -0.2145631290
0.2694303862 -0.6346769565 0.1966929388
0.3043728057 -0.6105579453 0.2677374094
0.3405338613 -0.5988058847 0.2360522460
0.3374220737 -0.6031828024 0.2119705727
0.3297269355 -0.6007373197 0.2581126183
0.2772965459 -0.6291824738 0.2132029814
0.3253797827 -0.6037209731 0.2494092127
0.3405907007 -0.6039729125 0.1946980813
0.3019409336 -0.6376827608 0.1006906305
0.3187799970 -0.6210535916 0.1506965787
0.2723462235 -0.6391958671 0.1618210245
0.3037739253 -0.6268115528 0.1548568497
0.2837340827 -0.6378756873 0.1422664938
0.3017372158 -0.6309740254 0.1372414538
0.2727359471 -0.6416237432 0.1478537677
0.2287440079 -0.3188317590 -0.9142575382
0.2424878164 -0.3107066267 -0.9147098150
0.1980195561 -0.2452382988 -0.9247410457
0.2107392788 -0.2597058009 -0.9224052505
0.1364151349 -0.2866900495 -0.9220834024
0.1705741606 -0.2994309350 -0.9190816549
0.1465913641 -0.2591955530 -0.9251089188
0.2365773444 -0.3313423127 -0.9123679723
0.2875039320 -0.5977640056 0.6430230894
0.3151040537 -0.5868489425 0.6613032996
0.3185054374 -0.5852798868 0.6602127152
0.3064404344 -0.5936824544 0.7064436859
0.3438334984 -0.5748399430 0.6706655437
0.3289643640 -0.5807626809 0.6006811784
0.3494099944 -0.5715800331 0.6056294582
0.3526485792 -0.5694095727 0.6285446779
0.2783715146 -0.6019670121 0.6353682001
0.3130401437 -0.5872462420 0.6174895247
0.2910403596 -0.5976423185 0.5962320560
0.0349053920 0.6858815563 -0.0631186752
-0.0095013662 0.6881081695 -0.0846619927
0.0016866283 0.6856826062 -0.0678479996
0.0168259660 0.6914967378 -0.1006436170
0.0542511602 0.6947740772 -0.1139601339
0.0202452059 0.6818317588 -0.0410114321
0.0387685947 0.6942380849 -0.1134575167
0.0567777145 0.6913096945 -0.0923523639
0.0587166371 0.6934711813 -0.1052047838
0.2512141014 -0.7935573988 -0.8095862508
0.2483836167 -0.7633455613 -0.8212487081
0.0710631990 0.3818468462 -0.9061018910
0.0222481502 0.3594074114 -0.9078996535
0.0269707408 0.4292171693 -0.8974705441
0.0383459189 0.3531606911 -0.9093758555
0.0318693407 0.3860943276 -0.9041696948
0.0037449485 0.3838095664 -0.9035917225
0.0668298597 0.4181614512 -0.9004568485
0.0472290638 0.2970607547 -0.9181735136
0.0052058494 0.5547975161 -0.8741345138
0.0258531351 0.4535303497 -0.8931232189
-0.0087936862 0.5690011566 -0.8710117858
0.0080674863 0.4368852905 -0.8953680918
0.0589147484 0.4637609210 -0.8926590379
0.0010809584 0.5289890600 -0.8785855146
-0.0130063191 0.4915244075 -0.8847116785
0.0037395777 0.5604300463 -0.8730652017
0.0067133317 0.4678151908 -0.8897732808
0.3199158327 -0.5915865338 0.3696235234
0.3022439476 -0.6010730840 0.3549099503
0.3221436735 -0.5916718076 0.3599015516
0.3106216750 -0.6002351588 0.3288196659
0.3339872877 -0.5800810010 0.4170468350
0.2882481237 -0.6049547055 0.3760713122
0.3041132510 -0.5924507068 0.4584319476
0.3333064257 -0.5796946691 0.4661761694
0.2829565800 -0.6016810427 0.4518115514
0.3141339989 -0.5884436268 0.4875956774
0.3458756718 -0.5736848147 0.4325762263
0.3270057291 -0.5828539729 0.4934847329
0.1072809415 0.6178655296 0.7880893938
0.1059326984 0.6150940712 0.7708342142
0.1202096554 0.6160370883 0.7797450672
0.1130729284 0.6161291643 0.7787386103
0.1271711377 0.6223067400 0.8196405059
0.1143231485 0.6195788232 0.8001221497
0.1260947834 0.6172811163 0.7886518543
0.1258458409 0.6132827330 0.7149575790
0.1034033490 0.6137918080 0.7072154662
0.0849629999 0.6151444875 0.7605023582
0.1003849771 0.6137719968 0.7005387750
0.0843783929 0.6144315407 0.7139418510
0.1178220200 0.6138660248 0.7378062225
-0.0779959899 0.8389977912 -0.7689117139
-0.0566413470 0.8373412395 -0.7637961014
-0.0826537309 0.8368521727 -0.7448349528
0.3243313071 -0.6239221598 0.9463275264
0.3375132861 -0.6174525714 0.9431295104
0.3153417377 -0.6206280107 0.9153519949
0.3064545525 -0.6154939149 0.8766512734
0.3152617381 -0.6228808515 0.9248955416
0.3035161360 -0.6196160903 0.8888952387
0.4344900443 -0.5342009619 0.9427566178
0.4326003287 -0.5423818416 0.9411253242
0.4485388450 -0.5159962076 0.9434277940
0.4453252975 -0.5193895202 0.9434815079
0.3463205444 -0.6068465639 0.9497297087
0.4324931488 -0.5374109499 0.9424939019
0.0127110430 0.6578867825 -0.8521357015
-0.0134022337 0.6698997477 -0.8478365863
0.0422702947 0.6820592521 -0.8478136887
-0.0274976629 0.6843017135 -0.8435898990
-0.0550419486 0.6916402290 -0.8403524889
-0.0276684578 0.6702112326 -0.8470086756
-0.0500202623 0.7068867191 -0.8356582663
0.0281877894 0.7113740296 -0.8381114700
-0.0543438452 0.6974554214 -0.8385597385
-0.0569532014 0.7107883077 -0.8340188984
-0.0391735963 0.7210575492 -0.8315177210
-0.0020563353 0.8128754884 -0.6265895266
0.0103123112 0.8078079038 -0.6053740304
-0.0680050843 0.8022080850 -0.5883488258
-0.0556221314 0.8183462553 -0.6522989215
-0.0512610051 0.8168096261 -0.6458232000
-0.0355951296 0.8181428999 -0.6500847696
0.0280404688 0.8038999145 -0.5871950498
0.0088187429 0.7932154450 -0.5416047853
-0.0138364156 0.7888287862 -0.5244547440
-0.0116128921 0.8017698852 -0.5819100491
-0.0010249156 0.7996013098 -0.5711182359
-0.0035135180 0.7974269472 -0.5616891853
-0.0199661413 0.7842579897 -0.5047290319
0.3543514298 -0.6418364916 -0.0893836959
0.3383242707 -0.6490703495 -0.0875969551
0.3265751582 -0.6602864673 -0.1176191340
0.3520271849 -0.6448371455 -0.0994655437
0.3317927444 -0.6492203543 -0.0720430693
0.2894398036 -0.6744781864 -0.0998651595
0.3632067754 -0.6347079286 -0.0737769780
0.2894908717 -0.6540968576 0.0245566482
0.3397535976 -0.6429502488 -0.0587222657
0.3253910975 -0.6390956258 0.0185626328
0.3653861363 -0.6328303497 -0.0674915233
0.2824227278 -0.6631830002 -0.0208591890
0.2881333780 -0.6540444269 0.0294915693
0.3637784136 -0.6331723466 -0.0647172356
0.3510794953 -0.6335114516 -0.0248557682
0.2942106215 -0.8128407402 -0.6911602791
0.2968456765 -0.8097378592 -0.7364242741
0.2913180703 -0.8122158879 -0.7835309220
0.2606948465 -0.7328316731 -0.8321444224
0.2476668153 -0.7432753297 -0.8296354949
0.2591778398 -0.7694123962 -0.8172173742
0.2606814753 -0.7547368669 -0.8239642305
0.2702403247 -0.7575009770 -0.8220052166
0.3205680314 -0.7475944594 -0.4694163678
0.3172590149 -0.7680931399 -0.5414199319
0.3174545439 -0.7523823311 -0.4824723930
0.2951467085 -0.7571604871 -0.4646424917
0.2906667286 -0.7573385964 -0.4581140748
0.2968327309 -0.7560950444 -0.4633333855
0.3721242468 -0.6896134399 -0.3372793406
0.3202139831 -0.7109529543 -0.3242614984
0.3238678704 -0.7235997277 -0.3893777112
0.3844949609 -0.6886906126 -0.3592692200
0.3262172234 -0.7208487393 -0.3818665549
0.3329189819 -0.7046830283 -0.3226964398
0.3712710579 -0.6888889511 -0.3321865943
0.3049847596 -0.7244934090 -0.3534749562
0.3243780932 -0.7069317030 -0.3148266972
0.3309511748 -0.7288840935 -0.4193938182
0.3123536487 -0.7340890861 -0.4090028311
0.3788942353 -0.7002935969 -0.3949114565
0.3723960151 -0.7029566448 -0.3941338962
0.2859048403 -0.7493794549 -0.4208796750
0.0863009179 0.6395447682 0.9061489449
0.0938942399 0.6427433478 0.9226927122
0.0772193861 0.6403123928 0.9090538462
0.0977661929 0.6407144603 0.9130478111
0.0680193106 0.6477787028 0.9450404170
0.0994439191 0.6371703469 0.8957028986
0.2278179104 -0.6142784738 -0.8648550817
0.2457423055 -0.6414629355 -0.8574932476
0.2382634179 -0.6054740185 -0.8668466310
0.2461284517 -0.6582833262 -0.8531968449
0.2581670224 -0.6134318657 -0.8643373104
0.2437738374 -0.4830372646 -0.8908246477
0.2461011793 -0.4952605711 -0.8885217351
0.2878723239 -0.4661189348 -0.8920500261
0.2127696053 -0.5469183174 -0.8805791524
0.2873484410 -0.4805886477 -0.8894598428
0.3121850482 -0.4655097598 -0.8911518714
0.2563983752 -0.5571314311 -0.8763596727
0.3204661018 -0.5161274262 -0.8807994282
0.2700562269 -0.5223300874 -0.8824711769
0.2655264968 -0.5349964915 -0.8802214226
0.2859583925 -0.5680020908 -0.8725039586
0.2552841231 -0.5960892052 -0.8687024909
0.2526572204 -0.5632115980 -0.8753699070
0.3114400568 -0.5436808558 -0.8758578762
0.2864269541 -0.5254588928 -0.8809089196
0.1710582965 -0.0167455346 -0.9418874934
0.1356496249 0.0316747454 -0.9437532388
0.1448107050 0.0367755808 -0.9431481739
0.1800446437 0.0229205981 -0.9410533897
0.1597079312 -0.0209545618 -0.9426225045
0.1119834725 0.0146920243 -0.9453427377
0.1680850189 -0.0148628335 -0.9420593131
0.1161585466 0.1292494049 -0.9370741412
0.0957353074 0.0210850435 -0.9461382821
0.1648239884 0.0685590583 -0.9400961095
0.1773651956 0.0593699399 -0.9403761028
0.1463326417 0.1670666683 -0.9331144079
0.1356177512 0.1216260431 -0.9369956033
0.1746259861 0.1116718213 -0.9364262367
0.1844808134 0.0715293039 -0.9391917081
0.1701460667 0.0867076894 -0.9385102005
0.1241904856 0.1395827163 -0.9359994799
-0.0477769900 0.8196412707 -0.7884484514
-0.0307297545 0.8283490255 -0.6915232749
-0.0327708330 0.8375649695 -0.7529935039
-0.0086761300 0.8403364164 -0.7550971932
-0.0377272516 0.8370999359 -0.7292126894
0.0069280170 0.8368241372 -0.7235120893
0.3503908336 -0.5798247241 0.7873894349
0.3686498828 -0.5725481973 0.8087813783
0.3586125503 -0.5742328858 0.7767598361
0.3214467657 -0.5938443051 0.7752248936
0.3403125564 -0.5910215663 0.8384194793
0.3343655963 -0.5854234419 0.7617221811
0.3667846827 -0.5886546379 0.8771076861
0.3663964771 -0.5950763967 0.9016119716
0.3952653765 -0.5585450257 0.8097160163
0.3448589383 -0.5986234161 0.8771552186
0.3543469265 -0.5832454515 0.8337241508
0.3972147437 -0.5601691270 0.8195614252
0.3965892476 -0.5867727077 0.9228268830
0.0524396701 0.6527010402 0.1519545334
0.0661310305 0.6512991655 0.1583074337
0.0233930384 0.6520651974 0.1637174836
0.0357770961 0.6434330663 0.2209535895
0.0265051216 0.6500759330 0.1768424354
0.0262828643 0.6460881132 0.2047812214
0.0850219927 0.6599509486 0.0970950299
0.0804482664 0.6646423055 0.0687343515
0.0796875359 0.6559742494 0.1226247952
0.0212909178 0.6653360830 0.0739961176
0.0446426977 0.6648257062 0.0733861761
0.0546447726 0.6618707647 0.0900982553
0.0072451574 0.7596366233 -0.4006344727
0.0002371026 0.7727609412 -0.4530128937
0.0457646790 0.7562826388 -0.3894447883
-0.0061028008 0.7602652525 -0.4023653351
0.0092470141 0.7539418370 -0.3778447789
-0.0010052629 0.7726245143 -0.4523897891
0.0214798409 0.7665483089 -0.4292903220
0.0294449233 0.7296112482 -0.2855631684
0.0706151122 0.7155433928 -0.2266816157
0.0677911771 0.7156845153 -0.2266003585
-0.0047218541 0.7342866584 -0.2994233616
0.0305959376 0.7324817077 -0.3002396151
0.0056281108 0.7322836200 -0.2922903750
0.0859695128 0.7188762328 -0.2476290108
0.1093081018 0.7212189162 -0.2658496691
0.0313726664 0.7307272661 -0.2916818288
0.1128180730 0.7345994228 -0.3239623141
0.0791043994 0.7332040982 -0.3132286962
0.0878048417 0.7367906523 -0.3270614098
0.0520934548 0.7469871020 -0.3557204200
0.0958700350 0.7387397997 -0.3351677822
0.0699173908 0.7509299140 -0.3723846614
0.0731011598 0.6152809650 0.5674186784
0.1229956130 0.6124316705 0.6446538806
0.1104875176 0.6127556275 0.5789565112
0.0882259477 0.6140422972 0.5463231952
0.0806303595 0.6150229890 0.5994898835
0.0568889271 0.6162078401 0.5424474983
0.1186697401 0.6127714527 0.6489671783
0.1115935502 0.6139928618 0.4869538256
0.0570098353 0.6162873853 0.5236789063
0.1423950238 0.6106659163 0.5569418198
0.1108098626 0.6130839504 0.5295239756
0.0902858370 0.6139718190 0.5422123422
0.0642626618 0.6161120084 0.5130180004
-0.0003431536 0.8226798755 -0.6662035748
-0.0052081343 0.8290017068 -0.6921604994
0.0092783567 0.8199738856 -0.6546263449
-0.0316576681 0.8253459138 -0.6789614230
0.1406915337 0.6292858897 0.2472217720
0.0786720735 0.6360109016 0.2414023693
0.1076356179 0.6346368883 0.2259476933
0.0860172307 0.6333621406 0.2611453120
0.1851206830 0.6279320841 0.2157599059
0.1004791177 0.6316454390 0.2640302897
0.1234920316 0.6299590807 0.2578675985
0.0975152695 0.6345235782 0.2374519893
0.0806320318 0.6425672060 0.2007035406
0.1119217479 0.6493440313 0.1501032407
0.1345399948 0.6327304853 0.2192859705
0.1119958551 0.6444489322 0.1741278808
0.1506818171 0.6333888212 0.2071330740
0.0944731178 0.6395574211 0.2078549466
0.1004340638 0.6376107623 0.2141325448
0.0944616865 0.2768819438 -0.9209305039
0.1389561941 0.2249852239 -0.9277792204
0.1441486639 0.2444267803 -0.9250830741
0.0979098348 0.2585701464 -0.9234202044
0.1329878106 0.2156122589 -0.9290997404
0.1405982287 0.3052353715 -0.9167626137
0.1480460265 0.3177886176 -0.9149358343
0.1193173238 0.3073900526 -0.9165544713
0.1025831073 0.3144989951 -0.9156178619
0.1247171167 0.3271504744 -0.9137084358
0.1117966015 0.3743212841 -0.9070351670
0.0692007717 0.3288412418 -0.9137264882
0.1147344742 0.3487960390 -0.9106651729
0.0812929089 0.2923042771 -0.9188856443
0.1305793953 0.3655829958 -0.9081947934
0.0878412638 0.5526054924 -0.8768221012
0.0759107976 0.5748587425 -0.8722943699
0.0722762310 0.5891836999 -0.8694801383
0.0061971406 0.5789721387 -0.8697823334
0.0646844716 0.5889243447 -0.8693410805
0.0824167931 0.5705871010 -0.8732681043
0.0568090828 0.5656943700 -0.8735630969
0.0463840978 0.5638730430 -0.8736507631
0.0544046198 0.6182973602 -0.8626425367
0.0964500886 0.5988901571 -0.8681330623
0.0228452624 0.6478582188 -0.8551077280
0.0274442868 0.6157064223 -0.8625449514
0.0464949977 0.6541185821 -0.8542854838
0.0265672493 0.6223989163 -0.8609989174
0.2931064142 -0.7263966333 -0.8317277141
0.3147006172 -0.7342282976 -0.8272586753
0.2932718312 -0.6623034365 -0.8508386687
0.3085439721 -0.8047038119 -0.7118512135
0.3232128312 -0.7985225360 -0.7844381289
0.3054577017 -0.8060062818 -0.7082747544
0.3129818678 -0.8028358844 -0.7466640846
0.3101999848 -0.8040090878 -0.7385991991
0.3203806009 -0.7735063656 -0.8106764623
0.4169051175 -0.5317024663 0.7049148935
0.3427468360 -0.5758982378 0.7226184314
0.3383729111 -0.5786787488 0.7176532178
0.3860902579 -0.5516862092 0.6562876543
0.3573892856 -0.5684952275 0.6733657877
0.3682753386 -0.5606335126 0.7182743467
0.4218336522 -0.5286869395 0.7064452856
0.4244696305 -0.5337401007 0.7654442147
0.3895354417 -0.5524989380 0.7540812616
0.3943410487 -0.5513308979 0.7635784892
0.3905719211 -0.5591305920 0.7947963744
0.4305674041 -0.5264749280 0.7450102581
0.4044537113 -0.5415135385 0.7422244110
0.4171605224 -0.5384931625 0.7677192414
0.3007176113 -0.4141957328 -0.8987095906
0.2335840094 -0.4311534448 -0.8990789067
0.2395974669 -0.4391873695 -0.8977576521
0.2374365005 -0.4425815805 -0.8973854495
0.2623556390 -0.4363948510 -0.8972338334
0.3186810091 -0.4557197973 -0.8923995411
0.3519362880 -0.6783459742 -0.2519904997
0.3837390331 -0.6533111440 -0.2248157227
0.3400447211 -0.6752955176 -0.2181068155
0.3529296132 -0.6775220445 -0.2509927015
0.3481804889 -0.6677487301 -0.2071009458
0.3466274769 -0.6768349431 -0.2363341646
0.3455151007 -0.6591531929 -0.1656300852
0.3490768223 -0.6572767367 -0.1650289307
0.3710619767 -0.6364681892 -0.1058083333
0.3915286753 -0.6416166728 -0.1982076627
0.3982488378 -0.6360531774 -0.1849012535
0.4124996562 -0.6302199203 -0.1925718554
0.3790265838 -0.6369596221 -0.1326675839
0.3798850363 -0.6355244263 -0.1266086558
0.3632353508 -0.7699587587 -0.6372751754
0.3260231913 -0.7811854160 -0.6113438800
0.3321363195 -0.7793844806 -0.6157853199
0.3072570926 -0.8029830669 -0.6658220119
0.3347852137 -0.7781325976 -0.6157358016
0.3597798323 -0.7838377306 -0.7550692797
0.4024858849 -0.7675243695 -0.7484277786
0.3786726004 -0.7765030663 -0.7592270941
0.3901278049 -0.7727498465 -0.7199377508
0.4089631365 -0.7649742999 -0.7519879039
0.3474666374 -0.7888295948 -0.7396136429
0.3786425837 -0.7769464434 -0.7332106704
0.4345519628 -0.7533098789 -0.7206652056
0.4218674570 -0.7576658945 -0.7122319840
0.3919936996 -0.7714437108 -0.7093150553
0.3701224528 -0.7758840520 -0.6799882908
0.4015049476 -0.7619096550 -0.6854566342
0.3907076809 -0.7599859591 -0.6511596117
0.3208285662 -0.5945203410 0.3318554233
0.3534967244 -0.5741064410 0.3718400194
0.3625164950 -0.5675701798 0.3980761376
0.3290760713 -0.5903985491 0.3245241702
0.3172949724 -0.5966923234 0.3281402578
0.3728772692 -0.5619401456 0.3965007760
0.3325502614 -0.5979079244 0.2680861212
0.3504292913 -0.5787325315 0.3237247796
0.3624150454 -0.5873367472 0.2332683053
0.3741054024 -0.5790539282 0.2443150795
0.3559827567 -0.5921787212 0.2254958521
0.3427405566 -0.5899340527 0.2822035680
0.3482742020 -0.5825173883 0.3082457740
0.3612399744 -0.5877961171 0.2343796868
0.3573338777 -0.6018654070 0.1569271877
0.3740505791 -0.6032873997 0.0734572998
0.3384743295 -0.6208147729 0.0908567924
0.3997770187 -0.5862911437 0.0945670647
0.4013160631 -0.5854369119 0.0945627087
0.3484600718 -0.6147144982 0.0951771238
0.3231308833 -0.6278882949 0.1021478483
0.3786602910 -0.6093275492 0.0239682954
0.3639965118 -0.6094430795 0.0696742585
0.3622122826 -0.6169037139 0.0338491265
0.3512828269 -0.6169915880 0.0679056571
0.3514131089 -0.6274787372 0.0092085893
0.3707567266 -0.6195006062 -0.0075904024
0.3700546820 -0.6064441565 0.0671934561
0.4050775658 -0.5892336425 0.0521483099
0.3877312004 -0.6013988695 0.0393635880
0.2341053667 -0.0959403838 -0.9349767324
0.1724531363 -0.1081501968 -0.9395254971
0.1862383416 -0.1046730116 -0.9385635139
0.2106086127 -0.1479213927 -0.9332197159
0.2189289965 -0.1250205125 -0.9341733423
0.2167145113 -0.0934605531 -0.9366967679
0.2105573311 0.0276316839 -0.9385014972
0.1981595801 0.0341479727 -0.9396521561
0.2111233922 -0.0418812142 -0.9381844304
0.2064736396 -0.0576256596 -0.9385464700
0.1822756363 -0.0620363819 -0.9407268677
0.2311945117 -0.0622841074 -0.9362839333
0.1945402196 0.0100060300 -0.9398885389
0.1727406794 -0.0559064070 -0.9416160995
-0.0231427647 0.8139960221 -0.7934656984
0.0096912653 0.8069910163 -0.8016707815
-0.0151552648 0.7831988950 -0.8118329843
0.0223076487 0.7821841722 -0.8118823839
0.0427244299 0.7963978084 -0.8063901140
0.0101394897 0.7889184897 -0.8094725023
0.0071041513 0.7708643645 -0.8162471511
0.0190264010 0.7700014042 -0.8164647153
0.0008910428 0.8237622106 -0.7864929264
0.3579245677 -0.5660415863 0.5240739608
0.3994806509 -0.5418401270 0.5373928681
0.3802349737 -0.5531106860 0.5286613202
0.3862432858 -0.5493824435 0.5400214074
0.3727233369 -0.5589640676 0.4653632264
0.3524192578 -0.5706416122 0.4649152350
0.3567089975 -0.5675298730 0.4915513353
0.3742841425 -0.5585811495 0.6180645608
0.3638857257 -0.5625291972 0.5521501105
0.4149184815 -0.5330684862 0.5464443481
0.3854467044 -0.5511780046 0.5855082167
0.3894799703 -0.5490304572 0.5909597361
0.3586976240 -0.7574675726 -0.5769298354
0.3367366433 -0.7543424107 -0.5217963529
0.3617229827 -0.7562132224 -0.5776615991
0.3413941785 -0.7544842279 -0.5313669616
0.3603898090 -0.7505457529 -0.5520006165
0.3587497035 -0.7523595269 -0.5562223940
0.1481264211 0.6350671898 0.9036032701
0.2166475867 0.6139186837 0.8583452882
0.1865590174 0.6162287820 0.8528154176
0.1608218253 0.6322458630 0.8992124951
0.2015756770 0.6141214907 0.8521001884
0.2049219962 0.6150176845 0.8569139840
0.1641947508 0.6406166706 0.9312556575
0.1643388423 0.6165219432 0.8211104875
0.1608580257 0.6167871629 0.8165393545
0.1294288330 0.6220687485 0.8207443072
0.1443812309 0.6208478061 0.8390940409
0.1164692671 0.6250826074 0.8356490239
0.1647656389 0.6181116668 0.8472274992
0.0804502610 0.7807762801 -0.5077260441
0.0662638218 0.7885888589 -0.5350485901
0.0357965360 0.7792039576 -0.4888689475
0.0638161708 0.7961488667 -0.5646595296
0.0782751375 0.7883298733 -0.5373879033
0.0728820136 0.7813071032 -0.5077254867
0.0349613408 0.7682421909 -0.4387469377
0.0453633602 0.7764177446 -0.4790465645
0.0544004727 0.7678930687 -0.4420888125
0.0590874460 0.7652481394 -0.4311014983
0.0489381212 0.7687292794 -0.4445489748
0.0464712703 0.7701401931 -0.4504185564
0.1165006222 0.6208542510 0.3587648272
0.0895781686 0.6249384560 0.3511041765
0.1318510380 0.6146270116 0.4295630250
0.1439451021 0.6146710305 0.4009913600
0.0891828305 0.6262843457 0.3290799570
0.1085155185 0.6221614118 0.3548602921
0.1572973397 0.6223351772 0.2900103534
0.1815868538 0.6185119605 0.2960735030
0.1376796630 0.6236701214 0.2992200659
0.1175239837 0.6264123807 0.2976515344
0.1836358249 0.6245887383 0.2450863728
0.1751525055 0.6208471379 0.2838252949
0.1789506760 0.6229856488 0.2627524834
0.2965888533 -0.2689467875 -0.9151867319
0.3096020427 -0.2185578133 -0.9196321034
0.2090787268 -0.2010677333 -0.9294155877
0.2064633679 -0.2042194369 -0.9292788635
0.2814881260 -0.2603303153 -0.9173061233
0.2809819352 -0.2075889503 -0.9230672918
0.2310290368 -0.2675949071 -0.9204766067
0.2416648695 -0.2820725875 -0.9180716579
0.2996782174 -0.2653850633 -0.9153307497
0.2971576751 -0.1951739958 -0.9226060031
0.2912698853 -0.1774469113 -0.9243499134
0.2696103907 -0.2008273435 -0.9244970002
0.3139597220 -0.1895810473 -0.9216043680
0.2769596850 -0.1436817286 -0.9279290262
0.2449121798 -0.1186137077 -0.9323679225
0.2745161023 -0.1542167798 -0.9273868599
0.0897778987 0.6720466342 0.0049806863
0.1344450957 0.6609861244 0.0434358213
0.1314232818 0.6606090526 0.0493909573
0.0961697958 0.6643028826 0.0573298587
0.1334660018 0.6605927997 0.0474270779
0.0998448131 0.6577530730 0.1033770566
0.0963090395 0.6611559520 0.0811158436
0.0838473880 0.6656936124 0.0593474857
0.1239436154 0.6842645059 -0.0934767762
0.1049021959 0.6810576430 -0.0620058232
0.0730216024 0.6988318783 -0.1369300444
0.0674084665 0.6894517881 -0.0811427111
0.1149055781 0.6899354682 -0.1182026061
0.0924156312 0.6894051634 -0.0989933954
0.0958990027 0.6746291428 -0.0160649636
0.0708468457 0.6780793995 -0.0197297262
0.1284031782 0.6690617503 -0.0045600835
0.1527964683 0.6613123857 0.0261726427
0.1427155132 0.6644391089 0.0139410874
0.1367245643 0.6672882296 0.0005400228
0.1457190717 0.6729985038 -0.0411447110
0.0160925046 0.8376367157 -0.7619474346
0.0387758999 0.8273249870 -0.7882545615
0.3956388581 -0.6753231413 -0.3370582746
0.3851251537 -0.6733361746 -0.3086740585
0.3840070700 -0.6676438688 -0.2876146932
0.4198926764 -0.6638987439 -0.3498461956
0.4154146744 -0.6649344031 -0.3439512534
0.3834830827 -0.6802476224 -0.3280115495
0.4590362262 -0.6285563376 -0.3148435021
0.3663329519 -0.6732751823 -0.2657701757
0.3832758075 -0.6633832021 -0.2668219425
0.4480217298 -0.6309293709 -0.2957172841
0.4276567827 -0.6352382296 -0.2591876644
0.4311855112 -0.6300661755 -0.2449312343
0.4467552074 -0.6332745007 -0.3031078971
0.4309392417 -0.6343909693 -0.2643650145
0.3291529160 -0.7016430327 -0.8361196268
0.3769313136 -0.7008128252 -0.8309289973
0.3362758018 -0.7086169510 -0.8331160384
0.3726347298 -0.7485574202 -0.8148672496
0.3788002669 -0.7450083241 -0.8153395138
0.3671857390 -0.7421896415 -0.8181970043
0.3163444485 -0.6665447503 -0.8476905753
0.3268287447 -0.6879121134 -0.8405063810
0.1889252279 0.6024332293 0.6239019139
0.1660965233 0.6065678533 0.6204172988
0.1663128137 0.6057472921 0.6483440757
0.2097017123 0.5976613480 0.6630903232
0.1699153649 0.6058492898 0.6219609643
0.1351401988 0.6112276570 0.6494926501
0.1863178696 0.6044946727 0.7141099935
0.2160794010 0.5968187795 0.6858645623
0.2086910658 0.5975569788 0.6797152961
0.1888370300 0.6012137542 0.6820539120
0.1390221407 0.6126137427 0.7130065270
0.0156902079 0.8321483866 -0.7042539856
0.0389449825 0.8379324940 -0.7629350359
0.3267509502 -0.5356772728 -0.8764016856
0.3759719756 -0.5717935739 -0.8653898885
0.3325476945 -0.4879282056 -0.8855273983
0.3408879191 -0.5178385102 -0.8788932925
0.3717477467 -0.5444728521 -0.8711894527
0.3685011643 -0.5669832017 -0.8669267055
0.3253560404 -0.5347288512 -0.8766987041
0.3458469170 -0.5627071493 -0.8695203699
0.4013436167 -0.5806871642 -0.8602418570
0.3177523375 -0.6347164641 -0.8563353844
0.3615876122 -0.6432342336 -0.8484916654
0.3874188855 -0.6365743382 -0.8470047122
0.3781506283 -0.6000468939 -0.8579851785
0.3874824678 -0.6527259834 -0.8426608772
0.3797448095 -0.6200687407 -0.8524083792
0.0782664011 0.8213830490 -0.6783077301
0.0740763447 0.8177742203 -0.6608921647
0.0815296242 0.8221490073 -0.6828149284
0.0663724366 0.8228060488 -0.6805481096
0.0331639734 0.8329683850 -0.7115873811
0.0531894184 0.8274814911 -0.6964897721
0.2139739219 0.1156468398 -0.9341902800
0.2205759783 0.1611374476 -0.9300292309
0.2005583898 0.1250329624 -0.9340578783
0.2023660068 0.1274253812 -0.9337672809
0.2080228730 0.1514491973 -0.9314631661
0.1518874354 0.1843729154 -0.9314448053
0.2548678129 0.2678709844 -0.9171902431
0.1832206825 0.2382982347 -0.9241351471
0.1958474514 0.2720893442 -0.9193290325
0.1853427327 0.2474741777 -0.9228891115
0.1495679554 0.2139986740 -0.9287018809
0.2133038889 0.2816616777 -0.9173402492
0.1644512938 0.2046622272 -0.9288693854
0.2719253237 0.2732955877 -0.9157073095
0.2471127928 0.2358286812 -0.9209812082
0.1373709610 0.2038713675 -0.9304798396
0.1944490257 0.2161442717 -0.9259890192
0.1835212568 0.2086379517 -0.9273818783
0.1986390458 0.1883196813 -0.9286289158
0.4208731750 -0.5328301531 0.3697771824
0.4153146610 -0.5385826967 0.3520668010
0.4151994536 -0.5322264285 0.4083128493
0.3814028282 -0.5536891320 0.4187763566
0.3881988805 -0.5508686873 0.4035983264
0.3639002071 -0.5646925139 0.4359051051
0.3696427847 -0.5609064412 0.4374411053
0.4268005972 -0.5228920703 0.4396875685
0.3903960280 -0.5479596536 0.4720438724
0.3977010101 -0.5422921222 0.4403827537
0.4093147598 -0.5361611904 0.5037408885
0.4086386752 -0.7204433938 -0.5421199711
0.3823237320 -0.7361621894 -0.5417435484
0.4474110788 -0.6914128540 -0.5212522493
0.4116732400 -0.7086054997 -0.5055796516
0.3957147982 -0.7474665013 -0.6123757190
0.4485196367 -0.6928937543 -0.5290885439
0.4065210107 -0.7230187152 -0.5468714266
0.3872099900 -0.7524100812 -0.6117554903
0.4046296224 -0.7153541250 -0.5147522754
0.4197253375 -0.7133399232 -0.5405231818
0.3914411364 -0.7128516693 -0.4766839586
0.4184116589 -0.6915372465 -0.4540061663
0.3772878517 -0.7089245860 -0.4235571663
0.4082133844 -0.6975561568 -0.4538882588
0.4086320780 -0.6938922757 -0.4390150495
0.3906481387 -0.7092181550 -0.4593249394
0.4256250996 -0.6926656109 -0.4775409618
0.4102848671 -0.7015449450 -0.4766046148
0.1240912666 0.4018562651 -0.9030969772
0.1395476239 0.3975758494 -0.9037067043
0.1278425400 0.4060827704 -0.9025088238
0.1212611465 0.4071696701 -0.9023520581
0.1501705100 0.3742407938 -0.9069768702
0.1094995851 0.4528949830 -0.8959507466
0.1600223003 0.4534181440 -0.8959145264
0.1468326658 0.3490788904 -0.9104922398
0.1073377671 0.4572664654 -0.8952050970
0.1217650165 0.4856827587 -0.8900287570
0.1655327272 0.4920620986 -0.8893452838
0.1356186135 0.5387049010 -0.8802158950
0.1783837556 0.4902888678 -0.8898306826
0.1139608876 0.4868888550 -0.8897096655
0.1059381232 0.4749496969 -0.8918613560
0.1145885923 0.5511559459 -0.8776248138
0.4248398722 -0.5262117514 0.5515253595
0.4183933844 -0.5301619203 0.5706648191
0.3960010941 -0.5441645747 0.6282523223
0.4396467564 -0.5138870094 0.6103111096
0.4339103830 -0.5193070036 0.5671482801
0.4691654095 -0.4942299336 0.6447356586
0.4362581054 -0.5185220527 0.6727741879
0.4358738404 -0.5169318501 0.6422432096
0.4231384598 -0.5260854373 0.6490160897
0.4030239811 -0.5399756230 0.6503736503
0.4275085818 -0.5228953510 0.6458842442
0.4181810047 -0.5456736062 0.2796766783
0.4186259205 -0.5489405775 0.2521827640
0.3953636226 -0.5680016231 0.2250343425
0.4042909344 -0.5552848274 0.2771216759
0.4025335630 -0.5626286947 0.2295289718
0.4189203371 -0.5583948849 0.1777362015
0.4097954227 -0.5547405416 0.2529519811
0.3801452949 -0.5782458878 0.2244415109
0.4024679666 -0.5529785140 0.3043072130
0.4125852391 -0.5728212489 0.1227259593
0.4303042171 -0.5595561758 0.1293809268
0.3807594551 -0.5892636076 0.1501460793
0.4372389030 -0.5598448224 0.1027619785
0.4071637835 -0.5818026313 0.0944392587
0.3946203345 -0.5838518914 0.1288756290
0.4318426261 -0.5614919086 0.1134947692
0.1414317921 0.6113435767 0.5094626286
0.2088118313 0.5980157085 0.4919120472
0.1625266571 0.6078171857 0.5404755490
0.1386585145 0.6118073985 0.5053977642
0.1710446705 0.6052378448 0.4877236431
0.1537180946 0.6134931195 0.3978173708
0.1720915444 0.6075870535 0.4303497433
0.1302400953 0.6127442509 0.4604671819
0.1384097806 0.6132828556 0.4351740253
0.1897118431 0.6073013437 0.3939810920
0.1765397156 0.6059189620 0.4412188623
0.1707442663 0.6054885054 0.4597692241
0.0761759385 0.6669837512 -0.8515955712
0.1413829915 0.6803836095 -0.8473556578
0.0803209163 0.6498227148 -0.8559008339
0.1053775472 0.6497067325 -0.8556087763
0.1101820539 0.6522764453 -0.8548944882
0.0770505497 0.6830195915 -0.8475116697
0.0564266941 0.7144392062 -0.8372675565
0.0686749868 0.7540110931 -0.8226876114
0.0926006885 0.7864255935 -0.8118228025
0.1012684339 0.7324527293 -0.8320076058
0.1176214831 0.7292669640 -0.8329709424
0.0985076876 0.7227174389 -0.8351989210
0.1224005763 0.7025240668 -0.8416794833
0.0902589645 0.7228087540 -0.8352078204
0.1843225342 0.6370971752 0.1573289669
0.1360226186 0.6474142881 0.1390896177
0.1636903789 0.6367004586 0.1814723703
0.1541290081 0.6407548186 0.1644865178
0.1572726598 0.6531563609 0.0787677265
0.1630606159 0.6518127904 0.0816662695
0.1674567647 0.6534121612 0.0664517293
0.1254579780 0.7987505049 -0.6108841967
0.0965441546 0.8015455938 -0.6079892760
0.1329204261 0.8041383382 -0.6405376193
0.1041168344 0.7958398057 -0.5852138428
0.1015811034 0.7944274545 -0.5771174693
0.1222547708 0.7902135167 -0.5687049294
0.1570200060 0.8016039695 -0.6419821098
0.0901212182 0.8083710084 -0.6336828243
0.0735652538 0.8062787745 -0.6175261542
0.1206658173 0.8058436786 -0.6405825193
0.0625284028 0.8107264229 -0.6277092878
0.4290438532 -0.5542444162 0.8771915779
0.4375422129 -0.5515989451 0.8890193028
0.4731234591 -0.5292271620 0.8939665826
0.4541865722 -0.5423116019 0.8959813883
0.4199894915 -0.5650250403 0.8960090286
0.4347095952 -0.5501017690 0.8756894411
0.4883181048 -0.5155522504 0.9042934716
0.4738760549 -0.5269964420 0.9118362148
0.0980318390 0.6999155416 -0.1610680827
0.1503212654 0.6892961778 -0.1487180565
0.1201884022 0.6986947774 -0.1764323860
0.1331826198 0.6979419571 -0.1852114903
0.1457809601 0.6888165482 -0.1409853413
0.1441534855 0.6828811885 -0.1020096213
0.1594446706 0.6901555670 -0.1636006263
0.1635295277 0.7046757290 -0.2341996238
0.1268446344 0.7194692689 -0.2673994062
0.1050056879 0.7045406885 -0.1957120168
0.0979477507 0.7136645860 -0.2262872980
0.0982729090 0.7115870306 -0.2184934835
0.1336896497 0.7239510321 -0.2891082090
0.3123163809 -0.3982209537 -0.8999436629
0.3480022246 -0.3691833686 -0.9012360903
0.3391022674 -0.4174050512 -0.8959154987
0.3155825508 -0.4304331264 -0.8958089115
0.3340379183 -0.4486719173 -0.8924211131
0.3144427615 -0.3466850551 -0.9060954207
0.3499371205 -0.3977639538 -0.8976281893
0.3555577954 -0.3761701917 -0.8999076911
0.3386019707 -0.2659347274 -0.9127422274
0.3411863115 -0.2519159111 -0.9139971059
0.2920349396 -0.3312855084 -0.9091328866
0.3549389074 -0.3248275208 -0.9057055329
0.3925756856 -0.3515852284 -0.9005474272
0.3707416563 -0.3293368924 -0.9042222702
0.3759896391 -0.3297445543 -0.9038402875
0.3247731694 -0.3124241191 -0.9089220834
0.3442579045 -0.2719740576 -0.9117622726
0.3868730395 -0.7765103720 -0.7929640593
0.3931738101 -0.7696002382 -0.7958331038
0.3753443275 -0.7792134746 -0.7943116443
0.1211978770 0.7577905607 -0.4330500078
0.1043887683 0.7563166387 -0.4162485611
0.1505587416 0.7531365811 -0.4333724477
0.1421238765 0.7618921026 -0.4630677766
0.1164964817 0.7693593412 -0.4764588185
0.1297695199 0.7639861731 -0.4634773307
0.1810901008 0.7408363104 -0.4037501637
0.1021131484 0.7749486860 -0.4895894665
0.1016692880 0.7533825194 -0.4027062949
0.1391353288 0.7376873317 -0.3574759826
0.1021658000 0.7430813227 -0.3554863088
0.1407588440 0.7345113203 -0.3431170175
0.1400313321 0.7333894811 -0.3370421056
0.1373334313 0.7403831556 -0.3693372191
0.0805775564 0.7528666479 -0.3869391470
0.2450651122 0.6128707011 0.8760121186
0.2394337544 0.6216029422 0.9096795493
0.2205456208 0.6175594534 0.8755296432
0.2421282829 0.6270417093 0.9360038459
0.2223517985 0.6222664616 0.8978581316
0.1862933962 0.6362521304 0.9284338662
0.4063953485 -0.6155872069 -0.1128822191
0.4218958746 -0.6258665442 -0.2021579316
0.4066434456 -0.6210658662 -0.1366336773
0.3896039857 -0.6268594282 -0.1102972088
0.3927985575 -0.6214437497 -0.0970483099
0.4107292628 -0.6146907652 -0.1220050640
0.4197274660 -0.6126690768 -0.1402721226
0.4508928112 -0.5606016524 0.0307841924
0.4352420766 -0.5783435058 -0.0216894308
0.4215161288 -0.5831566069 0.0233179222
0.4283710216 -0.5780586104 0.0236618546
0.4211858669 -0.5887928092 -0.0223580369
0.4518164094 -0.5670054608 -0.0292290936
0.4354970724 -0.5722138994 0.0286361112
0.4534921329 -0.5726286092 -0.0637306022
0.4247223877 -0.5894804884 -0.0491013901
0.4192575265 -0.5974323005 -0.0698627645
0.4724077037 -0.5572082361 -0.0518413363
0.4426649918 -0.5853056412 -0.0896153761
0.4230413992 -0.5976397815 -0.0837972638
0.4271264663 -0.5992991073 -0.1059530474
0.3895326894 -0.6200157447 -0.0803759173
0.4328644812 -0.5293792599 0.7985581031
0.5066487284 -0.4704447989 0.7821300317
0.4472825561 -0.5174131347 0.7813990020
0.4722619099 -0.4970105907 0.7618667776
0.5245983368 -0.4567536751 0.7981643125
0.4701391922 -0.4993170946 0.7812863599
0.4952647069 -0.4792762547 0.7765580855
0.5039541712 -0.4741345589 0.8057880970
0.4519299429 -0.5178339522 0.8143329598
0.5189165696 -0.4655722926 0.8145882293
0.4531104732 -0.5166159251 0.8135028005
0.4558066160 -0.5265635306 0.8473801398
0.5184714013 -0.4668384177 0.8171686670
0.4929306606 -0.4995160199 0.8529059751
0.0570195185 0.8314806285 -0.7715143652
0.2420723989 0.5894666347 0.6065559205
0.2476165834 0.5876563910 0.5801361511
0.1858007049 0.6032276085 0.6142136777
0.2476054433 0.5877360673 0.5844836678
0.2365769039 0.5904650854 0.5877940921
0.2148953752 0.5963963796 0.6262786724
0.2326872153 0.5922972891 0.4991544476
0.2307806725 0.5929597851 0.4876851267
0.2246731674 0.5936188350 0.5361326006
0.2414254366 0.5894869109 0.5385622253
0.2290181418 0.5933967603 0.4872985432
0.2412791231 0.5907147641 0.6936309322
0.2013247168 0.6025804604 0.7316485557
0.1858419222 0.6071532786 0.7447990968
0.2330024958 0.5929141582 0.6853234188
0.2359993279 0.5930226283 0.7449537286
0.2036880376 0.6018825469 0.7296468362
0.3025601175 0.5745189682 0.7606938852
0.2291080320 0.5976379283 0.7821641051
0.2425139146 0.5978613426 0.8031992030
0.2391842362 0.6016660414 0.8185447160
0.2245988503 0.6023904937 0.8008145842
0.2343859964 0.5996136983 0.8005054555
0.2545128048 0.5971343995 0.8170873022
0.2511963611 -0.0031582501 -0.9346620410
0.2481969638 -0.0476965233 -0.9347932191
0.2328647584 0.0199662170 -0.9364266561
0.2663393732 0.0295125776 -0.9333731606
0.2589109262 -0.0123157554 -0.9339213022
0.2326898511 0.0448183519 -0.9365238002
0.2084623407 0.0601314139 -0.9386741377
0.2307734086 0.0900539733 -0.9342397686
0.2223864470 0.0772057887 -0.9360095101
0.2359252799 0.0510009145 -0.9361694104
0.2498788734 0.1317343850 -0.9294106805
0.2837799736 0.0511117796 -0.9307753579
0.4648521887 -0.7281953883 -0.6994875838
0.4360959026 -0.7496159108 -0.7096090543
0.4625277063 -0.7283613873 -0.6950007063
0.4533438475 -0.6904412653 -0.5312943795
0.4309921967 -0.7301788249 -0.6303705063
0.4353490865 -0.7263394731 -0.6261395871
0.4793071367 -0.6928401039 -0.6036708886
0.4005360169 -0.7482540651 -0.6261147827
0.4238753358 -0.7213281073 -0.5789004452
0.4734615871 -0.7005095395 -0.6190694734
0.4833538062 -0.6941764406 -0.6186672418
0.4220486922 -0.7412596086 -0.6502231931
0.4425349419 -0.7226476412 -0.6293351307
0.3988159444 -0.7518820361 -0.6359304627
0.4425085628 -0.7296426232 -0.6546146078
0.4927493462 -0.6371055900 -0.4425567678
0.5135725399 -0.6164677240 -0.4263812487
0.4548607575 -0.6644034894 -0.4405004054
0.4486150555 -0.6666005598 -0.4330894852
0.4835639792 -0.6330814246 -0.4093766991
0.4460065985 -0.6705908381 -0.4394305963
0.4728593880 -0.6436772613 -0.4176506517
0.4753106408 -0.6549516934 -0.4578309565
0.4419957607 -0.6523456285 -0.3648843010
0.5024578754 -0.6131476693 -0.3797676704
0.4832048328 -0.6278338148 -0.3856932443
0.4185791975 -0.6700062004 -0.3711164286
0.4109286021 -0.6766599342 -0.3774282509
0.4681735221 -0.6360977718 -0.3748279718
0.1816540120 0.3887549143 -0.9048991710
0.2229708243 0.3930995199 -0.9031869540
0.2080744021 0.4058713588 -0.9018714150
0.2007627158 0.4354201852 -0.8980874530
0.2552210245 0.4098872639 -0.9000445528
0.2139286183 0.4275551225 -0.8987887195
0.2119267584 0.3992754165 -0.9026555411
0.2636612243 0.4361683856 -0.8962716023
0.2263153488 0.4334466220 -0.8976567810
0.2491249413 0.3449194824 -0.9082728894
0.2690307252 0.3977699445 -0.9012141400
0.2708773259 0.3974468443 -0.9011730909
0.2277460690 0.3452700637 -0.9091462907
0.2054660708 0.3209030821 -0.9129612746
0.2116754741 0.3035860259 -0.9147294966
0.2446165878 0.3784979984 -0.9045220185
0.2808627199 0.4082234650 -0.8994802267
0.0917286907 0.8261282318 -0.7756458507
0.0647985801 0.8368395459 -0.7380175566
0.0951256794 0.8330177221 -0.7326033945
0.4128618883 -0.5110870691 -0.8732731398
0.4628622395 -0.4870288377 -0.8720540040
0.4212289136 -0.5009622952 -0.8741359556
0.4055838432 -0.4688366824 -0.8814536499
0.3698738072 -0.4824945841 -0.8829408413
0.3706245330 -0.4701751918 -0.8850142760
0.4191963211 -0.5028714413 -0.8740226389
0.4558440026 -0.4770838639 -0.8745554069
0.3876517353 -0.4222400988 -0.8906003258
0.4151998992 -0.4567591686 -0.8823036398
0.4087896692 -0.4384680954 -0.8857993954
0.4623905181 -0.4420689465 -0.8793543120
0.3969793390 -0.4566967493 -0.8843172910
0.3903486084 -0.4032951081 -0.8931941355
0.4531159942 -0.4403372930 -0.8806386407
0.3754521691 -0.4516324415 -0.8874577854
0.3513563219 -0.4617337612 -0.8885669887
0.1551738094 0.5740098635 -0.8729445417
0.1945512328 0.4942964065 -0.8888587542
0.1394242629 0.5662659391 -0.8748441731
0.2379846782 0.5856910218 -0.8690123015
0.2001633768 0.5193411495 -0.8835338813
0.1808993637 0.5821670364 -0.8707785084
0.1680122481 0.5930607964 -0.8687392363
0.1825002494 0.6616442303 -0.8512011275
0.1856029741 0.6916049694 -0.8436506895
0.1293246538 0.6280970935 -0.8607547406
0.1688757938 0.6788418089 -0.8472079051
0.2377357037 0.6065931402 -0.8639417731
0.1728007908 0.6316889035 -0.8589297172
0.1691351353 0.6128214889 -0.8637598245
0.2063351146 0.6531779956 -0.8528344072
0.2004316901 0.5951224853 -0.8675879952
0.2116326177 0.6456329598 -0.8546291079
0.4446677498 -0.5147617531 0.3611914360
0.4623228180 -0.4989592038 0.3899539515
0.4556204936 -0.5034196876 0.4066327995
0.4471164132 -0.5117347444 0.3801632786
0.4240124560 -0.5328712323 0.3343301639
0.4575239206 -0.5058245098 0.3360380237
0.4518623471 -0.5177407714 0.2877347862
0.4424387036 -0.5257210499 0.2852217216
0.4759917516 -0.4971127937 0.2952873790
0.4572100020 -0.5310880463 0.1863357752
0.4574552810 -0.5143970096 0.2812161847
0.4270213665 -0.5321314330 0.3193367699
0.4697581317 -0.5009048714 0.3021772094
0.4754480591 -0.5040145537 0.2580906541
0.1061117115 0.8227811519 -0.7746369551
0.1056483726 0.8167431314 -0.7819311109
0.4511882833 -0.5038358256 0.5248124669
0.4815586947 -0.4786197219 0.4974387855
0.4411428523 -0.5130069739 0.4935693460
0.4503530104 -0.5063049166 0.4394190143
0.4504986896 -0.5053833353 0.4781319847
0.4606225393 -0.4963696480 0.4985058682
0.4556648348 -0.4999845006 0.5307311863
0.4638219010 -0.4960475977 0.5853188738
0.4547300943 -0.5037556430 0.5890003271
0.4336917331 -0.5189892462 0.5469346104
0.4513159327 -0.5047060343 0.5525982956
0.4061864771 -0.7083110360 -0.8247603394
0.4237756021 -0.7501377258 -0.7988948244
0.1611350409 0.6681741028 -0.0274744154
0.1954454676 0.6637362320 -0.0584865195
0.2048332696 0.6591079616 -0.0416153785
0.2051396737 0.6524439594 0.0073081096
0.1590709518 0.6728060923 -0.0580284991
0.1889630733 0.6581391218 -0.0048290837
0.2363916110 0.6514373205 -0.0434857335
0.2174433529 0.6530443080 -0.0200914350
0.1714941011 0.6844096924 -0.1417574109
0.1911564164 0.6734366187 -0.1215445866
0.1806498222 0.6743966851 -0.1119887899
0.2354091686 0.6654276439 -0.1453308393
0.2167349683 0.6642446510 -0.1163512278
0.1842108953 0.6783695688 -0.1330719588
0.2317301842 0.6693539207 -0.1568891070
0.2384961654 0.6551168702 -0.0879961486
0.2230935637 0.6615332340 -0.1115085879
0.2311587975 0.6592989713 -0.1110414052
0.2833588848 0.6458004318 -0.1181428085
0.2751306849 0.6463326655 -0.1002328456
0.2500323423 0.6494413283 -0.0612320380
0.3261678546 -0.1800830620 -0.9210397424
0.2863348379 -0.0979904842 -0.9301343567
0.3200549611 -0.1621842446 -0.9227729120
0.3090636410 -0.1529901958 -0.9244255758
0.3556458421 -0.1312250094 -0.9212880374
0.3288967438 -0.1053833800 -0.9255307578
0.3595891998 -0.1612681690 -0.9189923278
0.3139802273 -0.0053117081 -0.9283904765
0.3391655447 -0.0800763673 -0.9246846619
0.3577749790 -0.0936281046 -0.9224208729
0.3080624794 -0.0624407827 -0.9284112082
0.3353171575 -0.0783030902 -0.9251410963
0.3693796281 -0.1165451579 -0.9208445763
0.3596017685 -0.0973563814 -0.9221713607
0.3645644476 -0.0976291697 -0.9216056845
0.1784153529 0.7869844935 -0.5991061629
0.1352239496 0.7837259383 -0.5511851192
0.1287754113 0.7852698841 -0.5522539636
0.1345733646 0.7770076670 -0.5234524527
0.1832264108 0.7828882418 -0.5863837925
0.1670733353 0.7909708822 -0.6061330340
0.1658156943 0.7721049695 -0.5287132357
0.1394334795 0.7894949774 -0.5779345084
0.1993718353 0.7557503321 -0.4866136074
0.2025834981 0.7587693738 -0.5033589967
0.1829396364 0.7585233543 -0.4842643890
0.1687940173 0.7654884478 -0.5031791400
0.1958314926 0.7376762817 -0.4007139872
0.2091977739 0.7563990446 -0.4985688611
0.1991143161 0.7467912113 -0.4454038064
0.2539716882 0.5941659569 0.3154030351
0.1947648895 0.6214293201 0.2499264818
0.2043706718 0.6067151346 0.3336888401
0.2285408418 0.6078449996 0.2732871263
0.2210824909 0.6075980106 0.2912031659
0.2733663502 0.5863418304 0.3289862520
0.2478245757 0.5925034155 0.3531990128
0.2123157927 0.6011790136 0.4047852182
0.2344236354 0.5943846007 0.4082136458
0.2261091235 0.5943879575 0.4720454733
0.2124305451 0.6024018914 0.3726973449
0.2296913404 0.5976975072 0.3600533623
0.2580202917 0.5891136267 0.3613213601
0.2353157640 0.5928659018 0.4401099986
0.4434260614 -0.6952837298 -0.8229785202
0.4268157028 -0.6868411021 -0.8285109496
0.4075204916 -0.6741631571 -0.8343646795
0.4317394969 -0.6627047439 -0.8343649776
0.4337819802 -0.6246594342 -0.8443187249
0.4683207418 -0.5840974237 -0.1704513192
0.4370733247 -0.6107838355 -0.1848266982
0.4662223596 -0.5867612292 -0.1755729975
0.4464065797 -0.6085212731 -0.2077504069
0.4991434531 -0.5667234793 -0.1989436883
0.4522578444 -0.6017689293 -0.1966899677
0.4483662949 -0.6125432944 -0.2279484811
0.4362771484 -0.6229331409 -0.2314071028
0.4695181164 -0.5944445716 -0.2221596755
0.4441215057 -0.6209825271 -0.2449061306
0.4761151672 -0.6090212224 -0.2868005242
0.4555253113 -0.6139794938 -0.2508369757
0.4820675138 -0.5388672999 0.0164317256
0.4664783367 -0.5452024358 0.0526297290
0.4477381847 -0.5533035117 0.0930523582
0.4651729173 -0.5335739124 0.1331047591
0.4571087084 -0.5441248960 0.1055008591
0.4603903925 -0.5472917425 0.0692162524
0.2096516172 0.7038588926 -0.2817686567
0.1948905303 0.6964285450 -0.2275306467
0.1871603601 0.6987452769 -0.2291992726
0.2034140338 0.7101802089 -0.3046810453
0.1914845981 0.6955895725 -0.2192569435
0.1971709725 0.7118828022 -0.3052126502
0.2135362239 0.7013484440 -0.2744087144
0.2404394942 0.7021719131 -0.3109473645
0.1634296873 0.7251771678 -0.3222443163
0.2140979367 0.7258573325 -0.3736689790
0.1910638236 0.7210520862 -0.3335598866
0.1760004134 0.7242860506 -0.3310586314
0.2391607922 0.7059821607 -0.3238925230
0.2550152878 0.6983861139 -0.3109245395
0.2303796089 0.6246581429 0.1508010827
0.1968009418 0.6404305581 0.1053426688
0.2107206858 0.6316186883 0.1412447464
0.2268246928 0.6234836819 0.1673279877
0.2346503107 0.6244525441 0.1430748078
0.2274712285 0.6309683880 0.1097695995
0.2490562194 0.6285567582 0.0577227693
0.2800708115 0.6142454570 0.1041235502
0.2457054749 0.6294121055 0.0605851358
0.2790673905 0.6140258106 0.1104048266
0.2274311871 0.6336674828 0.0808644594
0.2170115594 0.6382382691 0.0679800867
0.2450124207 0.6287602124 0.0706257692
0.2353860016 0.6409314284 0.0174200854
0.2830614307 0.6195663955 0.0438816495
0.1899541053 0.6490074969 0.0518790328
0.2755602309 0.6202445539 0.0527545175
0.2611216206 0.6322800522 0.0177047695
0.2283668152 0.6453636276 0.0072734317
0.2749514812 0.6221721575 0.0443773791
0.2238258371 0.6480739438 0.0014721072
0.1415245563 0.8241918514 -0.7253201756
0.1455308345 0.8177704647 -0.7016051429
0.1521155980 0.8112773290 -0.6789193661
0.2739840605 0.6076157921 0.1660020025
0.3154192535 0.5851191501 0.2037715032
0.2661812601 0.6060786915 0.1873966154
0.2120760669 0.6204607031 0.2121099760
0.2646461398 0.6049348733 0.1957602970
0.2473121708 0.6157834443 0.1728628646
0.3046667901 0.5806212938 0.2766155711
0.2953060522 0.5846908642 0.2694538341
0.2386808246 0.6073168986 0.2468598055
0.2484955056 0.6022488517 0.2627066059
0.2134200445 0.6191720460 0.2184468884
0.2532271451 0.5991307298 0.2773696098
0.2867848621 0.5870002799 0.2774546537
0.2839138280 0.5882960411 0.2747628596
0.2855390144 0.1172019749 -0.9271503974
0.3351804652 0.1261864608 -0.9226585889
0.2677570067 0.1448330720 -0.9272695811
0.3118856481 0.0556326553 -0.9279700930
0.3042966874 0.1038137299 -0.9262636234
0.3088359867 0.1368091296 -0.9242991019
0.2961290782 0.0873121488 -0.9277281976
0.3008814778 0.2128871094 -0.9186070144
0.3141933722 0.1841074695 -0.9200033066
0.2831442026 0.2082530978 -0.9206455841
0.3060815295 0.2108603561 -0.9183164647
0.2879656406 0.1670008794 -0.9239479249
0.2843984329 0.2570842890 -0.9161014239
0.2714473941 0.1992562251 -0.9225288526
0.4668544564 -0.7432777873 -0.7731343771
