-0.3200172375 0.5362098369 -0.4229194039
-0.3087161074 0.5352589603 -0.4319981292
-0.2826603372 0.5203741087 -0.4683216760
0.2985916179 0.6510707711 -0.2569834571
0.3283442353 0.6925178989 0.2464531126
0.3162047884 0.6959208135 0.2524450887
0.3134429862 0.6948737696 0.2585596046
-0.4267011153 0.4883063433 -0.3886956461
-0.4093499795 0.4896898599 -0.4032255174
-0.3932673964 0.5065177323 -0.3992658618
-0.5506007112 0.4997055998 0.3086477742
-0.6037402607 0.4979609747 0.1500384164
0.3741728999 0.6887825803 0.1700303948
-0.4445313391 0.4986238075 -0.3564838809
-0.5751764265 0.4745225468 0.3042478926
-0.5068137927 0.5092040553 0.3467710227
-0.5222343970 0.5173997201 0.3224172417
-0.5337474516 0.5085281744 0.3202410562
-0.4892662638 0.5385813809 0.3334849399
-0.1715299377 0.6165836760 0.4209226155
-0.1496937199 0.6217267667 0.4208683568
0.3439333658 0.7041019102 0.0950187730
0.3215641846 0.7149878504 0.0994175950
0.3474227106 0.7023931420 0.0936418814
-0.1564904822 0.5529222559 -0.4928355216
-0.1380411240 0.5498116797 -0.5032598095
-0.1345210259 0.5729679186 -0.4733425080
-0.3656714714 0.4995827713 -0.4305458161
-0.3815162749 0.5295977731 -0.3823378808
-0.3648380317 0.5251533902 -0.4015230326
-0.3850383343 0.5225450314 -0.3875983291
-0.1055814236 0.5604672529 -0.4996060068
-0.1232098658 0.5795240770 -0.4676840517
0.2520448481 0.6829139470 0.3329098946
0.2875367943 0.6902838310 0.2983866079
0.2559514646 0.7027248977 0.3007780936
-0.5996321484 0.4881461269 -0.0374297044
-0.5871798647 0.5026187125 -0.0364388151
-0.6013229208 0.4893669443 -0.0237452062
0.2950102086 0.6743298090 -0.1966068653
0.2968379577 0.6809317148 -0.1743259847
-0.5932932183 0.5029454064 0.2124453651
0.0147532551 0.5855358171 -0.4776193449
0.0118270132 0.6176475090 -0.4328323889
-0.0024557044 0.5930798168 -0.4669990859
-0.4376620603 0.5352026803 0.3773099532
-0.4210982801 0.5522494835 0.3737945228
-0.4706163544 0.4959628635 -0.3244373978
-0.4905617124 0.4961840462 -0.2948013135
-0.4942366902 0.5041718187 -0.2776614026
0.1495044953 0.6606535765 0.3891833867
0.1352910216 0.6819222245 0.3720836275
0.1236388607 0.6911092086 0.3657918546
-0.5254490843 0.5222677193 0.3132237486
-0.5587488845 0.5060491241 -0.1325155048
-0.5057746997 0.4900962740 -0.2805644201
-0.0777448386 0.5804729489 -0.4775246856
-0.0904280305 0.5722496517 -0.4863985076
0.2765688063 0.6618868334 -0.2532907084
0.2506249644 0.6469987778 -0.3045752010
0.2501198539 0.6698043901 -0.2608194968
0.0772864215 0.6538029968 0.4052128310
0.0932708077 0.6498728891 0.4071380030
-0.5878335358 0.5135196364 0.0139861699
0.2345810436 0.6928332575 0.3275070771
0.2677144758 0.7017184749 0.2911247116
0.2400792148 0.6630919057 -0.2810240528
0.2165771598 0.6319148605 -0.3583434802
0.3383850027 0.6990339703 -0.0241758963
0.3481251686 0.6904427812 -0.0444014969
0.3349644179 0.6994666708 -0.0307584730
0.3438139097 0.7019376558 0.1985637644
-0.5743746948 0.4903026066 0.2761991780
-0.5532484800 0.5233594086 0.2584716926
-0.5619295314 0.5119157298 0.2616792811
-0.5692795450 0.5026712006 0.2635554126
-0.5510256135 0.5105286498 0.2874206657
-0.5897833679 0.5132303264 0.0843331877
-0.5830347530 0.5213775683 0.0884633844
-0.5783171075 0.5261985320 0.0490425102
0.3645918865 0.6930725872 0.0330218675
0.3308845264 0.7094875906 0.0321452321
0.3292198417 0.7106846115 0.0589616365
0.3223892141 0.7135839636 0.0305384611
0.0407856882 0.6080367488 -0.4447942035
0.0304098611 0.6434639408 -0.3967256300
0.2189187682 0.6791125687 0.3528742138
0.1704506070 0.6411361609 -0.3664253484
-0.2794689501 0.5968600547 0.4048386605
-0.5783386163 0.5259360011 0.0274212866
-0.6076643829 0.4920578916 0.0896840850
-0.6007373538 0.5000665055 0.0777190122
-0.5775027987 0.5165920352 -0.0259782462
-0.5669508314 0.5130259733 -0.0885931095
-0.5719520295 0.5053086070 -0.0954861787
-0.5958627439 0.4741772775 -0.1060301513
0.0883063575 0.6429638790 -0.3887136660
0.0852229718 0.5891321509 -0.4647077315
0.0814467316 0.6084075913 -0.4383994406
0.0795778123 0.6242303077 -0.4165759392
0.1043908901 0.6441318703 -0.3841017978
-0.6042485386 0.4972471897 0.1639522918
-0.5032945214 0.5169943015 -0.2385416987
-0.4895747897 0.5331574612 -0.2324043446
-0.4883471538 0.5359684901 -0.2286568505
-0.5119223889 0.5159251874 -0.2210857716
-0.2598506818 0.5296905674 -0.4714856463
0.1782353869 0.6999682661 0.3407281435
0.2056569540 0.7068195147 0.3211179626
0.2063238033 0.7055339085 0.3225701784
0.0155309272 0.6415739655 -0.3995937587
0.0201796354 0.6441360449 -0.3960234611
-0.0149616272 0.6306097193 -0.4149009561
-0.0081963250 0.5911741119 -0.4696456004
-0.0301158509 0.6261047788 -0.4205115949
-0.0349173852 0.5951088363 -0.4631682428
-0.0419515986 0.5999164787 -0.4558013487
0.3213154706 0.6990839243 -0.0679582040
0.3461958913 0.6821185754 -0.0930627337
-0.4555983693 0.5498040901 0.3520968178
0.1378412117 0.6382525895 -0.3837234182
-0.4459578373 0.5020000410 -0.3498354420
-0.4238539693 0.5155538542 -0.3572934181
-0.4552927592 0.5245923100 -0.3011626182
-0.4746404771 0.5186347701 -0.2843689051
-0.4441681045 0.5258017751 -0.3143845652
-0.4621171127 0.5089823736 -0.3169757117
-0.3657484755 0.5456221501 -0.3761246779
-0.3712982572 0.5897072382 0.3726726860
-0.3499105750 0.5724917868 0.3951813299
-0.3677554325 0.5742670142 0.3856755276
0.1794585088 0.6828896361 0.3614830240
-0.0275240140 0.6405898117 0.4195692567
-0.5696158440 0.5364709889 0.0628862637
-0.5736073832 0.5320818245 0.0743187538
0.1881943930 0.6679561234 -0.3044094846
0.1952849285 0.6722725070 -0.2912172230
0.2203810095 0.6687715320 -0.2822433919
0.2057671860 0.6761788003 -0.2766854795
0.3190470201 0.7136676571 0.2005545523
-0.5609453505 0.5139656712 -0.1080526685
-0.1053945711 0.6011003396 -0.4430640465
-0.1288399293 0.6299205390 -0.3980869263
-0.5330537889 0.5259398165 -0.1491699067
-0.5238070762 0.5410935539 -0.1352528169
-0.1547262500 0.6471470132 0.3984557170
-0.1232969795 0.6314173531 0.4180601259
-0.4930911030 0.5576932238 0.3064630068
-0.4118106226 0.5296038692 -0.3507041930
0.2657917467 0.6916521393 -0.1789523944
0.2909802131 0.6809259266 -0.1820340525
0.2880639369 0.6747876763 -0.2037362053
0.2694127642 0.6691784050 -0.2421625475
0.2493268896 0.6893870731 -0.2048451449
0.2532217297 0.6757787909 -0.2411625275
0.0498413147 0.6835025383 0.3815279409
0.0702801154 0.6771606538 0.3855832640
-0.3868687580 0.5890205566 0.3633612166
-0.3330432832 0.5592288347 -0.3848394682
-0.3248897435 0.5730125556 -0.3734477384
-0.3235144393 0.5630696641 -0.3868637860
-0.1079198994 0.6372499683 0.4152149857
0.3518576468 0.7009937671 0.1448308891
0.3212505892 0.7155053043 0.1290413793
0.3427261714 0.7051560567 0.1260248374
-0.5780878407 0.5261687248 0.1778315976
0.3094287242 0.7193052895 0.0371157909
0.3154050728 0.7175588677 0.0880064354
0.3031546769 0.7052967174 -0.0781848494
0.3023517779 0.6975229893 -0.1154538186
-0.2705211037 0.6128729561 0.3952927995
-0.2679848710 0.6387046659 0.3750581293
-0.1529677601 0.5881217503 -0.4465679907
-0.1726260781 0.5776836628 -0.4527459982
-0.2341477271 0.5658150752 -0.4407164924
-0.2333580696 0.5645173411 -0.4428353158
-0.2396639657 0.5530923380 -0.4535249615
-0.2563495339 0.5442773597 -0.4546721027
0.2583924099 0.7254512475 0.2359479163
0.2646677895 0.7205888323 0.2428911899
0.2565086117 0.7230115269 0.2445847102
-0.2325507421 0.5820464398 -0.4201747097
-0.2265264860 0.5548633323 -0.4588779937
-0.5553844548 0.5375908928 0.2262669703
-0.5342331717 0.5503313767 0.2429978517
-0.5115879516 0.5465666279 -0.1506255940
-0.5129197677 0.5469139887 -0.1467584212
-0.5294716059 0.5135312375 -0.1861909301
-0.5057120225 0.5521935125 -0.1510717903
-0.3729060357 0.5681357420 -0.3332202802
-0.3810806839 0.5856279729 -0.2937974741
-0.4593002130 0.5494197645 0.3493016207
-0.4477811734 0.5623158441 0.3452553082
0.2316510505 0.6771938612 -0.2579903488
-0.1075355980 0.6437587524 0.4095826295
-0.0816448357 0.6621272752 0.3969460715
-0.1033492633 0.6658287294 0.3908094530
-0.5728672826 0.5332866620 0.1068403679
0.1813983597 0.6591154831 -0.3257320071
0.1901375705 0.6464339040 -0.3457871067
0.1760989963 0.6770204145 -0.2934648995
0.3505059971 0.6958381655 -0.0094332566
0.3533054242 0.6948910588 -0.0072707727
0.2780785531 0.7256563076 0.2133410096
-0.3474670958 0.5567413186 -0.3773552442
0.2237107375 0.6950522680 -0.2150329954
0.2336153015 0.6854905284 -0.2332500973
0.2204416683 0.6891383743 -0.2360242236
0.0286695571 0.6540823833 0.4082940432
-0.5489422492 0.5236777683 -0.1165224864
-0.0938088500 0.6153455986 -0.4263466024
-0.0929062924 0.6307621842 -0.4052588026
-0.0945885397 0.6345568955 -0.3996888025
-0.1101733719 0.6220361789 -0.4134182971
0.3083740637 0.7207872923 0.1723717808
0.2712030186 0.7019270333 -0.1413232782
0.2627036387 0.7049164582 -0.1423099334
-0.4542538726 0.5448961462 -0.2697322184
-0.4647762102 0.5514347388 -0.2400041609
-0.4729279878 0.5386999906 -0.2530794277
-0.4075794272 0.5602774099 -0.3054431881
-0.3823227902 0.5949858266 -0.2763934285
-0.4024802823 0.5617326969 -0.3090379792
-0.5707877079 0.5342865120 0.0215674781
-0.5444747586 0.5552232477 -0.0108664639
-0.5711751892 0.5275874582 -0.0110936927
-0.5553683025 0.5270789248 -0.0855765863
-0.5668194891 0.5396391899 0.0858446475
-0.5381365625 0.5671008758 0.0388963240
-0.5510940168 0.5542219254 0.0306365786
-0.5591373181 0.5478821019 0.1212694559
-0.2152898847 0.6520251059 0.3800823738
-0.2501606915 0.6345007834 0.3844923301
-0.2274992528 0.6010752795 0.4182509489
-0.1875525245 0.6135220544 0.4193841235
-0.2016782878 0.6246629344 0.4062864650
0.3019647295 0.7229340036 0.0608133783
-0.1594950606 0.6559636206 0.3900595122
-0.1304831651 0.6406268128 0.4088496679
-0.3259447209 0.5821027160 0.3980277810
-0.3567854050 0.5922050850 0.3769019002
-0.4412799008 0.5735702108 0.3383780211
-0.4278364481 0.5942274034 0.3268214801
0.1082727121 0.6899437854 0.3695797483
-0.5564286368 0.5504745065 0.1649177488
-0.5647576357 0.5399901611 0.1993267678
-0.2731749419 0.5740468717 -0.4067787572
0.1356557789 0.6715382340 -0.3228205208
0.1393227948 0.6597064333 -0.3450542734
0.1334261350 0.6538089419 -0.3591748750
-0.3156626008 0.6037220883 0.3852028532
-0.3229396500 0.6084254736 0.3784147595
-0.2732182380 0.5902969432 -0.3856564749
-0.3140583080 0.5793417725 -0.3727353818
-0.2950062070 0.5587072802 -0.4125711453
-0.0595168584 0.6483240182 -0.3865234891
-0.0550411728 0.6163495020 -0.4315693663
-0.0489530861 0.6215295699 -0.4249737939
-0.0660342516 0.6248768301 -0.4181187454
-0.0784980497 0.6198159883 -0.4231178457
-0.3777545876 0.5928238030 0.3656919531
0.2926942148 0.7160322225 -0.0443056228
0.2414169690 0.7209158630 0.2643186263
0.2308971434 0.7226166070 0.2689884898
0.2306310230 0.7249205953 0.2629268438
-0.5151184822 0.5584338352 0.2637912667
-0.5158638146 0.5539637317 0.2715303182
-0.5060088205 0.5502281906 0.2985256686
0.1421346054 0.7045047504 0.3455482968
0.0800545732 0.7088374690 0.3523753073
0.1492272522 0.6630158094 -0.3345006735
0.1534830432 0.6646333442 -0.3293411969
0.1460706424 0.6922832164 -0.2765493338
-0.5351504608 0.5691499818 0.0144186278
-0.1820631984 0.6171141893 -0.3973537267
-0.1613135729 0.5989199710 -0.4291800680
-0.1416733587 0.6173492139 -0.4109784394
-0.1826343586 0.6254483267 -0.3858931617
-0.1419452690 0.6133774229 -0.4162739641
-0.2234785432 0.5995226572 -0.4014671051
-0.2172559767 0.5998444861 -0.4040434535
-0.1922897780 0.6195099304 -0.3900702183
-0.5503010065 0.5567343431 0.1336154842
-0.5496870047 0.5571001066 0.1489665427
-0.5284631052 0.5430317831 -0.1193526008
-0.4449048496 0.5950809513 0.3078499440
-0.5380996146 0.5464176149 -0.0747223908
-0.5494924161 0.5321589392 -0.0883107780
0.1210496564 0.6822556074 -0.3066987369
0.1196687864 0.6777006891 -0.3163539313
0.0892852953 0.6602782386 -0.3608485890
0.0914061662 0.6714101956 -0.3380198939
-0.5500478238 0.5560799074 0.0773569457
-0.5485214920 0.5576122426 0.0780282062
-0.0223572425 0.6780271728 0.3876099966
-0.0364026103 0.6673858772 0.3961290180
-0.0069287415 0.6547019346 0.4081370068
0.0015995355 0.6592858782 0.4040741862
0.0614402508 0.6926252247 0.3718950933
0.2724739439 0.7338237316 0.0296285483
0.3017592829 0.7241840634 0.1172439850
0.3014769750 0.7232197647 0.1784378665
0.2504633490 0.7432849458 0.1677354461
-0.4766451086 0.5549692421 -0.2063275209
-0.4507902445 0.5960488111 -0.1562819161
-0.4434885477 0.5824390229 -0.2061498346
-0.4591759809 0.5786468786 -0.1828667203
-0.4730263298 0.5520955918 -0.2212142809
0.0038193581 0.6490946199 -0.3888173886
0.2876529396 0.7257395816 0.0020719894
-0.3430573981 0.5905914739 -0.3253688471
-0.3459638103 0.5857750395 -0.3308079819
0.1816694229 0.6921874339 -0.2576774452
0.1711684396 0.7197878645 0.3139108924
0.1563323067 0.7224415211 0.3156546299
-0.4932357473 0.5544724795 -0.1733115358
-0.1901056137 0.6445985932 0.3929988458
-0.4102708613 0.5825533678 0.3543082435
0.0584854622 0.6583128281 -0.3704347914
0.0599199980 0.6785594985 -0.3305335574
0.0773018613 0.6571773014 -0.3703325834
0.0516562960 0.6717086919 -0.3459440709
-0.3068981351 0.6374254840 0.3594461479
-0.2906352832 0.6275036162 0.3758763292
-0.5173201915 0.5700108694 -0.0604659622
-0.5092921687 0.5739300723 -0.0752044660
-0.5212277196 0.5844107267 0.1501793006
-0.3675549971 0.5664437843 -0.3423212714
-0.3585390833 0.5879351473 -0.3137677932
-0.4242198422 0.5717101900 -0.2659728580
-0.4063555702 0.5842332655 -0.2659719347
0.0290309779 0.6641233225 -0.3634514415
0.0511522714 0.7000746000 0.3649260125
-0.2127185838 0.6258602021 -0.3697744718
-0.2415755018 0.6149501375 -0.3709003474
0.1376040133 0.6945972384 -0.2754297531
0.0544739406 0.6943551993 -0.2996923073
0.0621865593 0.6835250035 -0.3200515404
0.0570808090 0.6895899573 -0.3088158178
0.2584381071 0.7301291263 -0.0387218948
0.2577841823 0.7307767054 -0.0365214815
0.2505732963 0.7388499254 -0.0071141195
-0.5014197606 0.5923661787 0.2167796732
-0.5191616059 0.5654116906 0.2414043780
-0.4532350512 0.5992045248 0.2884996401
-0.4964186904 0.5949281547 0.2204892829
-0.4804130213 0.5835821190 0.2742049235
-0.4956778224 0.5780868634 0.2589466368
0.2750246539 0.7333024285 0.0560568213
0.2632934825 0.7373829283 0.0338757805
0.2530538461 0.7421486477 0.1208847705
0.2661995425 0.7374219319 0.1302995866
0.2603043444 0.7395629536 0.1285952436
0.2674715230 0.7366489135 0.0939372108
0.2592129841 0.7394599529 0.0693148148
-0.4794991410 0.5526852169 -0.2062077387
-0.4742934598 0.5628168167 -0.1914101155
-0.4805189370 0.5728133374 -0.1534549929
-0.4762256683 0.5847388789 -0.1322670313
0.2331360538 0.7462603445 0.2021982511
0.2836517142 0.7289582833 0.1943543779
0.2366661798 0.7466006484 0.1879416820
0.2539648824 0.7161449619 -0.1151511117
-0.5361075544 0.5650464786 -0.0044230597
-0.5403516403 0.5573279189 -0.0196135003
-0.5379767484 0.5637880094 -0.0021410216
-0.3568145774 0.6112370259 0.3593346386
-0.3617790592 0.6226106593 0.3424354640
-0.5311992067 0.5746859765 0.0801134838
0.0833602289 0.7206337504 0.3351220551
0.1052822372 0.7166983275 0.3369926822
0.2271486611 0.7319928414 0.2467268127
0.2055947617 0.7460048314 0.2250166848
0.2192992393 0.7445823211 0.2185259318
0.1975799382 0.7461626146 0.2307213373
0.2054420201 0.6945126385 -0.2333070024
0.2264238844 0.7028064240 -0.1885994407
0.1960645892 0.7051272690 -0.2079424521
0.2203479418 0.7290750480 -0.1095350424
-0.3364524313 0.6331376542 0.3471797524
0.1721313211 0.7320482051 0.2896701020
0.1958627816 0.7356051741 0.2619020833
-0.2925062849 0.6158260700 -0.3283327876
-0.2757267298 0.6074713155 -0.3580032836
-0.2953210588 0.6129693175 -0.3309337383
-0.3136203274 0.5917164312 -0.3526136091
-0.0053409355 0.6596882738 -0.3725949117
-0.0371166886 0.6622230891 -0.3665952576
-0.1535933807 0.6322929276 -0.3866116524
0.0877910384 0.7336414898 0.3163787774
-0.1186677980 0.6802067139 0.3762878584
-0.0436262415 0.6937581344 0.3721099465
-0.0258141167 0.6919832147 0.3753496614
0.2438265821 0.7395661474 -0.0170436038
0.2422538623 0.7332473288 -0.0541056399
0.2551946730 0.7378272482 -0.0010994197
-0.4085108945 0.5967239999 0.3391165182
-0.3720488195 0.6280796383 0.3287879243
-0.3608479461 0.6398049258 0.3228877680
-0.4811867555 0.6068858063 0.2211731390
0.2367773940 0.7450659277 0.0157839262
0.2516232153 0.7403108745 0.0153949154
-0.2360817984 0.6291885473 -0.3488324837
-0.2431277882 0.6359880827 -0.3310999650
0.1374047221 0.7273475419 0.3141106930
-0.5078515632 0.5945302800 0.1810319470
-0.0139656354 0.6989760752 0.3682834475
0.2135536807 0.7196196692 -0.1479112103
0.1856898510 0.7103108151 -0.2010928505
0.2102797537 0.7127419665 -0.1717873419
0.1644101177 0.7084333381 -0.2245517242
0.1443534292 0.7219765110 -0.1942048204
-0.4152175069 0.6221520168 0.2956939656
-0.1702786208 0.6783411975 0.3675230083
-0.1388201385 0.6436868815 -0.3744247004
-0.1744265896 0.6332142007 -0.3781273692
-0.4272818118 0.6053983820 -0.1768250870
-0.4449418049 0.6036667815 -0.1487069220
0.2419359242 0.7404207746 -0.0157608954
0.1930446281 0.7464744633 -0.0602219857
0.2170019148 0.7395527525 -0.0603389428
-0.5130814431 0.5920262988 0.1195577767
-0.5355704217 0.5709536567 0.1114197747
-0.5170294807 0.5807073789 -0.0133568149
-0.3353908756 0.6021016927 -0.3130655204
-0.3284579865 0.5903242009 -0.3412032445
-0.0735976343 0.6980580885 0.3648253816
0.1154141734 0.7081222763 -0.2544260063
0.1231793222 0.7167240575 -0.2232118766
0.1305464006 0.7191529368 -0.2112634311
0.1337964475 0.7116810104 -0.2328439337
0.0757417162 0.6963343118 -0.2906750382
0.0826783318 0.6903882023 -0.3016431173
-0.3977288658 0.5971848078 -0.2515069579
-0.4169907318 0.5990450891 -0.2128090044
-0.4026138798 0.6024215604 -0.2301691634
-0.2281098096 0.6649847269 0.3641609219
0.1016548744 0.7041434602 -0.2670807461
0.0212171392 0.6678757536 -0.3570879975
0.0332588364 0.6672079587 -0.3580358485
-0.0943274358 0.6607037414 -0.3580081404
-0.1000088076 0.6689546088 -0.3396868936
-0.0642329119 0.6634280348 -0.3602582895
-0.0818615067 0.6554490340 -0.3717461016
0.0473994625 0.7283048050 0.3301660358
0.2158197906 0.7525383976 0.0421840335
-0.2069513916 0.6376769572 -0.3520964897
-0.1931924358 0.6508995061 -0.3346524792
-0.1937055180 0.6556467730 -0.3253350545
-0.4910182874 0.6088748701 0.0459142508
-0.5149166955 0.5890523110 0.0431981158
0.1447598688 0.7384777977 -0.1419865815
0.1532784917 0.7421719786 -0.1251194967
0.2253929537 0.7459579009 -0.0113923917
0.1999031071 0.7511688072 -0.0231019401
0.2298493247 0.7496789817 0.0999731051
0.2058012049 0.7565298724 0.1025540993
-0.3774557828 0.6111669531 -0.2495830440
-0.3446548958 0.6235396666 -0.2644551915
0.1350843569 0.7347471054 0.3004923131
-0.4884335870 0.6112744123 0.1794245608
-0.4794600017 0.6156801200 0.1962460932
-0.4725384618 0.6145042899 0.2195325847
-0.0652150630 0.7104193988 0.3514657810
-0.4293558488 0.6192460882 0.2814460469
-0.4027834281 0.6374817330 0.2808383002
-0.4521279907 0.6209986769 0.2409340466
-0.4572029198 0.6281931197 0.2157563360
-0.4499734431 0.6239749387 0.2372770897
-0.4561381750 0.6292421814 0.2149524376
0.1938175269 0.7243225942 -0.1509082808
0.1895863902 0.7206972653 -0.1658152326
0.1772737954 0.7371027778 -0.1242710400
-0.1530017294 0.6882965609 0.3613753902
0.2144884308 0.7534497130 0.1834450776
0.2304772276 0.7499129384 0.1583283544
0.2353389473 0.7486306498 0.1291341587
0.1879293661 0.7614996599 0.1754465963
-0.2096259897 0.6600988281 -0.3070137955
-0.2251897954 0.6520160527 -0.3122292434
-0.2189385223 0.6531838192 -0.3141990592
0.1861414712 0.7626165459 0.1258026367
0.1983887665 0.7579797946 0.0596561705
-0.4913949183 0.6075417018 0.0165895676
-0.5174705842 0.5836324460 0.0072048591
-0.3645647576 0.6438042672 0.3150793347
-0.3844034133 0.6415141614 0.2967080923
-0.0203237245 0.7178766722 0.3447180697
0.0141675360 0.7106557077 0.3550257651
0.0177304007 0.7310475803 0.3271197093
0.0210127481 0.7133751859 0.3514297003
-0.2658393160 0.6646602925 0.3490235680
-0.2130079334 0.6825407401 0.3493189384
-0.2526828729 0.6705159658 0.3479581738
-0.4730347827 0.6232117787 0.0285720222
-0.4755128637 0.6212069859 0.0278157957
0.2084691030 0.7353156633 -0.0949695498
-0.4501656112 0.6101628628 -0.1202848975
0.1886277457 0.7585949349 0.1936882856
-0.0473023881 0.6697757214 -0.3500730382
-0.0536444103 0.6736071507 -0.3412632692
-0.4750185612 0.6148329114 0.2130240552
0.1787948519 0.7451386962 -0.0862565446
-0.2733532805 0.6213595479 -0.3346452452
-0.2976334884 0.6239570863 -0.3093341248
-0.2719353263 0.6146741455 -0.3484996000
-0.1432564627 0.7047209698 0.3442602769
-0.0740832319 0.7227476229 0.3345851300
-0.0396130230 0.7252981256 0.3339968997
-0.4823309723 0.6036645135 -0.0432249572
-0.4913963694 0.5962832038 -0.0431795398
-0.2613313357 0.6362463242 -0.3165705949
-0.2653740701 0.6353920944 -0.3147849305
-0.3239984632 0.6336229415 -0.2668786145
0.0826599606 0.7457300996 0.2925128720
-0.4939032304 0.6074391518 0.1011215790
-0.5059268373 0.5984330056 0.1400167080
-0.4800997885 0.6191117625 0.1363442816
-0.4931424554 0.6087857578 0.1402284400
-0.4655590915 0.6302456408 0.1656663026
-0.4739686756 0.6012055207 -0.0839694208
-0.4520708659 0.6165139797 -0.0931759886
-0.4704780820 0.6260965208 0.0855821319
-0.4712121060 0.6252429242 0.0739872483
-0.1781410596 0.6931877479 0.3488026735
-0.3194970083 0.6471100672 0.3408928614
-0.2848705278 0.6605435920 0.3443262307
-0.2945373872 0.6590215646 0.3406293331
-0.3949076089 0.6436797854 0.2776266467
-0.3842242829 0.6544249060 0.2662665229
-0.3639694596 0.6651701900 0.2682193728
-0.4491909264 0.6337057310 -0.0158053516
-0.4662709745 0.6221745644 -0.0102941239
-0.4891014439 0.6016054564 -0.0230395955
-0.4029224313 0.6160958250 -0.1909868447
-0.3923901483 0.6165029850 -0.2095261325
-0.4094282668 0.6161958775 -0.1801448096
-0.4023778393 0.6345513804 -0.1444761191
0.1235108276 0.7675731627 0.2142037254
0.1744357072 0.7477292738 0.2433502518
0.1656251997 0.7463639654 0.2523099063
0.1483156227 0.7512938866 0.2476994440
0.1312329581 0.7677767470 0.2091624114
-0.4381531680 0.6108204932 -0.1421121458
-0.4130079192 0.6304650269 -0.1358495779
0.0122988047 0.7394557112 0.3148783150
-0.0260688042 0.6940879826 -0.3035917476
-0.0173835634 0.6857370951 -0.3208361717
-0.3644792251 0.6220435037 -0.2417653965
-0.3670249650 0.6357887122 -0.1995934689
-0.3719880827 0.6189789441 -0.2383920440
-0.1455631656 0.6521692760 -0.3559936506
-0.1327043311 0.6661832975 -0.3343296259
-0.1554063739 0.6876402463 -0.2815954538
-0.1834882020 0.6642081137 -0.3140926928
-0.1756539344 0.6644052690 -0.3175547067
-0.1821058646 0.6607509504 -0.3216038557
0.0806320288 0.7168270613 -0.2416103296
0.1270057804 0.7550182539 -0.0906015628
0.1693885186 0.7480132870 -0.0821657770
-0.1573282625 0.7145155835 0.3268769201
-0.1119950526 0.7214729542 0.3278872759
-0.1094265563 0.7287609948 0.3177780860
0.1373860174 0.7380773373 0.2918543672
0.1210622072 0.7425281537 0.2877565264
0.1236631482 0.7501092763 0.2645331218
0.1422700108 0.7470303454 -0.1137263748
-0.0096904543 0.6958567347 -0.3001553956
0.0287105993 0.6967850958 -0.2977342237
0.0139074013 0.6772040192 -0.3382666795
0.0154943074 0.7021045422 -0.2869514563
-0.2480546011 0.6809925310 0.3373141642
0.1236131320 0.7462722395 -0.1290635351
0.1053696493 0.7435622612 -0.1470543357
0.1854116236 0.7599312840 0.0053917776
0.1811821347 0.7580562860 -0.0120818994
-0.3196999116 0.6381987674 -0.2621527184
0.0404030189 0.7264926935 -0.2232755714
0.1804458957 0.7633789891 0.1706188169
0.1504858128 0.7704775007 0.1487109046
-0.4742677720 0.6226408357 0.1847704424
-0.1083351649 0.6780155089 -0.3188051839
-0.1309569608 0.6863919224 -0.2943673426
-0.1019688618 0.6989740374 -0.2784064048
-0.1193363703 0.6721321745 -0.3271097677
-0.4507573299 0.6207875782 -0.0777808741
0.0955317444 0.7476693122 -0.1372978707
0.0692438640 0.7273437737 -0.2115635741
0.1003119671 0.7328420853 -0.1834890952
0.0680019689 0.7209378600 -0.2326221464
0.0882105721 0.7167185307 -0.2394845930
0.0899198994 0.7349153947 -0.1802709466
0.0113386760 0.7137014450 -0.2620296772
-0.4514207152 0.6394494603 0.1734293361
-0.4354898563 0.6502592583 0.1843360560
-0.3600916989 0.6741873438 0.2507922255
-0.3437899391 0.6736068039 0.2751574329
-0.3536050511 0.6816052642 0.2409150556
-0.0781552909 0.7019431424 -0.2796099029
-0.0298660727 0.6903352913 -0.3109328539
-0.0299961492 0.7047423158 -0.2815601655
0.1814013334 0.7624489675 0.0720712128
0.1843665464 0.7618263765 0.0713555850
0.1713967225 0.7641213761 0.0442719754
0.1615896047 0.7662152281 0.0452043567
-0.0457907868 0.7370341788 0.3168119190
0.0516366097 0.7471158794 0.2949153602
-0.0025344915 0.7435850285 0.3075407774
-0.4670939378 0.6286960584 0.0838812790
0.1355907646 0.7723855105 0.1784105684
0.1400864071 0.7724287287 0.1583302778
-0.2769015109 0.6773509563 0.3265893834
-0.2717991657 0.6963893762 0.2985627614
0.1124368722 0.7550677391 -0.1036145875
-0.1581895090 0.7099925594 0.3331594933
0.1461645392 0.7709943980 0.1312059005
0.1581035125 0.7682896641 0.1161063946
0.0606520622 0.7457495019 -0.1565423768
0.0641890769 0.7394238071 -0.1746020677
0.0944057840 0.7619073046 0.2421544110
0.1093276132 0.7539469474 0.2610273518
0.0042424095 0.7285608383 -0.2190260056
-0.0089915050 0.7352183158 -0.1982863862
-0.1863054174 0.7184236764 0.3093403455
-0.1765284430 0.7156302128 0.3184615721
-0.0008700852 0.7155058555 -0.2579073801
-0.0337807585 0.7080370023 -0.2738650408
-0.3323617099 0.6739927083 0.2887596022
-0.2330830699 0.6681780736 -0.2742243901
-0.2867904330 0.6565123271 -0.2563895985
-0.2564922533 0.6613326758 -0.2700923281
-0.2113840042 0.6656563619 -0.2948188638
-0.2177716026 0.6646599986 -0.2923431228
-0.4464753923 0.6427201365 0.0761469265
-0.4180102092 0.6619999181 0.0702323358
-0.4547276273 0.6370582415 0.0745918714
-0.4152719499 0.6613098080 0.0021231875
-0.4177123185 0.6589695690 -0.0013561126
0.1445839926 0.7658652720 -0.0104585787
0.1701089757 0.7627708254 -0.0004054474
0.1193742441 0.7714390718 -0.0041739595
-0.2376063307 0.6800991502 -0.2431708466
-0.2774637734 0.6631489983 -0.2481040867
-0.4226144174 0.6322862612 -0.1103838525
-0.3986769013 0.6404923482 -0.1346022397
0.1358595617 0.7718621898 0.0736378886
0.1421954000 0.7702508080 0.0524939021
-0.4298148507 0.6368674594 -0.0680842009
-0.4266238138 0.6391969904 -0.0671194441
-0.4038317144 0.6539488509 -0.0692523581
-0.4117683442 0.6559473913 -0.0343859695
-0.3993295288 0.6560723352 -0.0734540425
-0.3387871657 0.6521380121 -0.1952938932
-0.3381640921 0.6507342452 -0.2005631572
-0.2955351218 0.6536877090 -0.2536516759
-0.3077071327 0.6540947899 -0.2359733189
0.1337548127 0.7566051092 -0.0741531730
0.1258315626 0.7666981294 -0.0260638585
0.1439112982 0.7613509920 -0.0360341479
-0.1158161553 0.7359787866 0.3055049443
-0.4281674107 0.6546252142 0.0461203022
-0.4547240132 0.6363647843 0.0349288211
-0.0001084287 0.7260326515 -0.2272786204
0.0040466398 0.7209246457 -0.2432514637
-0.1960269503 0.6827811143 -0.2694406872
-0.1814322729 0.6792765705 -0.2849853202
-0.0490849899 0.7421302850 0.3071338082
0.0137712856 0.7403588935 -0.1806147771
0.0277097156 0.7428924051 -0.1718276518
0.0155345332 0.7402700672 -0.1808081086
-0.3528111974 0.6515988466 -0.1772691343
-0.3588826402 0.6595109880 -0.1456476968
0.1138326043 0.7621386660 -0.0644502181
0.1251889511 0.7746252730 0.1205519051
-0.2875963863 0.6990466412 0.2760202044
-0.2960143849 0.7056453618 0.2485778104
-0.2920212436 0.7218441656 0.2100641508
-0.3139919873 0.7036025796 0.2328484119
-0.3032437402 0.7074024231 0.2353974030
-0.2876384471 0.6596578004 -0.2466120320
-0.3987144644 0.6662326501 0.2169590584
-0.1400519473 0.7038130086 -0.2534457436
-0.0984685074 0.7050899765 -0.2660526903
-0.1106585315 0.7086678623 -0.2517018918
0.1045006623 0.7696029735 0.2164642378
0.1022588395 0.7675375927 0.2232011710
-0.4409142974 0.6448897746 0.0091647108
-0.4182794549 0.6612389720 0.0404652147
-0.4319125005 0.6515631647 0.0180098652
-0.1463747569 0.6984226288 -0.2631406176
-0.2430076655 0.7067925861 0.2987701417
0.1168761992 0.7724674256 0.1994240483
-0.3650885647 0.6514450166 -0.1586606753
-0.3653982510 0.6503999893 -0.1611143628
0.0528155131 0.7471313565 -0.1543237630
0.0258924706 0.7533988025 -0.1380842404
-0.1865898989 0.7251559888 0.2956224486
-0.0931931752 0.7406303445 0.3021919463
-0.4075089901 0.6687271644 0.1756516499
-0.4008556766 0.6711806069 0.1949522641
-0.4039182255 0.6714358529 0.0977920025
-0.4232251079 0.6589509348 0.1107089482
-0.4167482853 0.6629212354 0.0752309625
-0.4168546202 0.6633604416 0.1478808521
0.1186750173 0.7744425996 0.0439472553
-0.1534811000 0.7286745627 0.3048741646
-0.3946441191 0.6773793256 0.1549860768
0.0675589116 0.7814294780 0.0991479960
0.0807968505 0.7796820744 0.0969537195
0.1067506413 0.7764442897 0.0967164454
0.0659386964 0.7809918689 0.0845235664
-0.2861653036 0.7196716736 0.2221646279
-0.2476922665 0.7129001016 0.2786512648
-0.2207871402 0.7188091845 0.2885528253
-0.2225412885 0.7193599120 0.2853527654
-0.2447188448 0.7183067306 0.2667719889
-0.3202293070 0.6689406832 -0.1761654579
0.0839045017 0.7732674361 -0.0196162000
0.0962209842 0.7736895308 -0.0087918869
0.0256072577 0.7567821738 0.2722764592
0.0614900055 0.7562853275 0.2687871857
0.0392780595 0.7656178119 0.2449781669
-0.3352625786 0.6702181663 -0.1514848363
-0.3392718897 0.6800065778 -0.1159869099
-0.2884438188 0.6759498525 -0.1975065629
-0.1522102511 0.7103218669 -0.2257444775
-0.1506650103 0.7138359656 -0.2160795695
-0.1707001496 0.7015555288 -0.2380657284
-0.0943397828 0.7245509692 -0.2110705236
-0.0716026714 0.7250058971 -0.2189618622
-0.0939515252 0.7250416906 -0.2097614967
-0.0826127333 0.7315278661 -0.1949847578
-0.4082182659 0.6680755139 0.0433687414
0.0824210841 0.7711525251 -0.0328706560
0.0712731831 0.7740467274 -0.0231555899
0.0551159679 0.7621897151 -0.0971727508
0.0779450301 0.7682067312 -0.0523075441
0.0838696485 0.7645022731 -0.0696916829
0.0783779107 0.7615290386 -0.0888949596
-0.2959038554 0.6851396706 -0.1607571164
-0.3061589622 0.6802160036 -0.1619870666
-0.0443687889 0.7395860872 -0.1793792850
-0.0489215180 0.7234668589 -0.2297033679
-0.0877757060 0.7475249298 0.2867035122
0.0365394240 0.7563793842 -0.1259453064
0.1141176164 0.7729103255 0.0027698668
-0.3795505373 0.6738049753 -0.0411737026
-0.3825287088 0.6654997229 -0.0747573017
-0.3607446365 0.6885376968 -0.0204091942
-0.3905291678 0.6559449751 -0.1002657836
-0.3631827474 0.6876283081 -0.0180251539
0.0730774228 0.7790866866 0.1889896897
-0.2209232637 0.7282768871 0.2620379519
-0.2244996170 0.7265983894 0.2633243388
-0.3651648075 0.6913888288 0.0211390558
-0.0021644077 0.7621573656 0.2585892221
-0.0255472319 0.7565215658 0.2736837808
0.0739627127 0.7773842081 -0.0009945702
-0.1918887839 0.7329045619 0.2705725647
-0.1669116625 0.7326969978 0.2895149993
-0.1222352439 0.7259187916 -0.1938706152
-0.1059735384 0.7279524040 -0.1955081799
-0.0581472475 0.7601107722 0.2574297355
-0.0734707504 0.7616921225 0.2494534927
-0.0420783334 0.7533199346 0.2808844566
-0.1506414946 0.7465680157 0.2593529549
-0.1427556576 0.7492457129 0.2560164964
0.1044157927 0.7779999076 0.1547730420
0.0655375549 0.7823782286 0.1479310155
0.0746824404 0.7813246159 0.1241627601
-0.3373517583 0.6890496691 0.2437801323
-0.3738053048 0.6835579919 0.2070827423
-0.3338626899 0.6861529376 -0.0994638127
-0.0629130233 0.7319895987 -0.1995344952
-0.0567515093 0.7167532649 -0.2496539710
0.0901030618 0.7791060416 0.1651056136
0.0979110580 0.7779177819 0.1747462972
0.0848797506 0.7785405335 0.0449992304
-0.0053772886 0.7429314606 -0.1733821192
0.0367188117 0.7628045654 -0.1016353048
-0.1433456633 0.7596022964 0.2253589558
-0.1080421404 0.7524394162 0.2637967825
-0.1137709123 0.7534521263 0.2579993595
-0.2196054508 0.7193969638 -0.1440671575
-0.2262085704 0.7020535395 -0.1895759779
-0.2334665929 0.6957132448 -0.2010797588
-0.2610172205 0.6810312057 -0.2163344888
0.0338897756 0.7765852941 0.2127791394
0.0197061308 0.7637815440 0.2522784511
-0.0075354325 0.7815504827 0.2012839864
0.0212420241 0.7819518135 0.1954147409
-0.3674703867 0.6677884688 -0.1046686749
-0.3729266924 0.6667511871 -0.0949143340
-0.3715434710 0.6648502403 -0.1080733355
-0.3446389187 0.6933778545 0.2221534978
-0.4061103345 0.6696405171 0.0658274855
-0.4008462930 0.6727214470 0.0729486177
-0.3879466559 0.6807724974 0.1128429235
-0.3942672328 0.6761632861 0.0584162795
-0.3696038501 0.6899891449 0.0521519626
-0.3876423236 0.6800304947 0.0682747682
-0.0557368633 0.7677420463 0.2351190781
-0.0388057695 0.7532335703 0.2818161761
-0.0293853214 0.7732389175 0.2238199280
-0.3533131839 0.6748484019 -0.1063667414
-0.3553294483 0.6785683491 -0.0836382790
-0.3419237385 0.6886446562 -0.0671555670
-0.3491429013 0.6935120299 -0.0264704078
-0.1942170512 0.7150574338 -0.1781020448
-0.1847001045 0.7159998273 -0.1826099433
-0.1901078805 0.7070136240 -0.2058794433
-0.1987567517 0.7213700123 -0.1552822008
-0.2157611449 0.7207397581 -0.1440073178
-0.0271003160 0.7595285972 -0.1198724558
-0.0134897614 0.7428633332 -0.1738394268
-0.1232919842 0.7333204480 -0.1701222048
-0.1421135779 0.7267615691 -0.1813700783
-0.0858324939 0.7451104248 -0.1510760098
-0.3797334980 0.6855539040 0.1571254580
-0.3554379174 0.6988917440 0.1261575805
-0.3869575239 0.6819378571 0.1415813172
-0.2480912238 0.6996003811 -0.1738182000
-0.2540109707 0.7081572451 -0.1416509810
-0.2531591271 0.6954447101 -0.1810293308
-0.2719447277 0.7067669775 -0.1251455138
-0.3040826441 0.6981025023 -0.1084554859
-0.2797637075 0.7085778980 -0.1057787381
0.0206160964 0.7768088478 -0.0248612394
0.0424695351 0.7700275571 -0.0590239670
0.0526513976 0.7798909875 0.0112037933
0.0642848795 0.7803563956 0.0428132634
0.0811717857 0.7783395184 0.0197776043
-0.3167174077 0.7123944479 0.2003875266
0.0200076998 0.7648594049 -0.0925034048
0.0238054785 0.7649469842 -0.0916358986
0.0055416809 0.7618453771 -0.1107348306
0.0320590775 0.7810024935 0.0137279477
-0.3420333963 0.7033671990 0.0253013972
-0.3468879472 0.7026950781 0.0868269461
-0.3558070696 0.6966312985 0.0366218809
-0.0679538609 0.7565315063 -0.1179474884
-0.0431086856 0.7555814249 -0.1284299908
-0.3151776417 0.7089303354 -0.0267108399
-0.3053706801 0.7155345199 -0.0137222144
-0.3334971878 0.7005771983 -0.0287493088
-0.3227528610 0.7077089906 -0.0150973691
0.0308794976 0.7827773331 0.0620784075
-0.0080480842 0.7838260635 0.0766090690
0.0335690180 0.7837744018 0.1147728784
0.0507391299 0.7830253894 0.1035875977
-0.3233292341 0.7141917089 0.1246867223
-0.3392605667 0.7069244883 0.1251164627
-0.3398887456 0.7066228872 0.1569142357
-0.1995166292 0.7518368411 0.2114091281
-0.1925775338 0.7381394332 0.2552343701
-0.2396247271 0.7167133444 -0.1307257638
-0.1788018534 0.7461066039 0.2427233284
-0.1771474267 0.7470271490 0.2412832514
-0.1181561441 0.7609857768 0.2338536753
-0.1079848710 0.7657880776 0.2250107360
-0.1216725811 0.7426109346 -0.1416886404
-0.1082489564 0.7451413023 -0.1405515744
0.0353297201 0.7839950947 0.1630557558
0.0450080657 0.7839174219 0.1588503147
-0.0160199956 0.7841223460 0.1795846433
0.0298686824 0.7836341107 0.1809839115
0.0135119129 0.7829580726 0.0422454396
-0.1855091627 0.7297777573 -0.1383816006
-0.1959441270 0.7248167409 -0.1468478936
-0.1643366553 0.7417618879 -0.1175336226
-0.1672606079 0.7311473837 -0.1484924378
-0.2933000927 0.7210136333 -0.0129361572
-0.2912942205 0.7116735559 -0.0669056954
-0.2907854591 0.7157704732 -0.0472991022
-0.2557157163 0.7200291664 -0.0975552268
-0.0083607757 0.7695216095 -0.0668721856
-0.0060465579 0.7823171191 0.0155538200
-0.2932426495 0.7273482795 0.1748338749
-0.2431103400 0.7222765079 -0.1074820109
0.0110959986 0.7847274685 0.1381760593
0.0077975557 0.7842390101 0.1095289068
-0.0153340682 0.7844473556 0.0996299577
-0.2888199298 0.7279729154 0.1889149831
-0.0555554799 0.7780664875 0.2038001058
-0.3216059421 0.7137178458 0.0636482955
-0.3185562715 0.7149663422 0.0577494208
-0.3229912999 0.7123844478 0.0208015941
-0.3168502864 0.7156102904 0.0512138529
-0.3053492069 0.7214963665 0.0961531809
-0.0240485169 0.7838065818 0.1825114584
-0.2901210990 0.7273878700 0.0392151396
-0.0925540441 0.7568933785 -0.1083142665
-0.1250519060 0.7487932815 -0.1174335536
-0.2618735572 0.7373052280 0.1971526466
-0.2308570181 0.7448038930 0.2034374073
-0.3121021329 0.7168816735 0.0147722817
-0.0158597674 0.7777401930 -0.0193451581
-0.0286062553 0.7754700756 -0.0309405413
-0.0234467618 0.7677229011 -0.0755496754
-0.0351880445 0.7625136491 -0.1020263578
-0.0837756710 0.7617750779 -0.0876948836
-0.0658239979 0.7591495732 -0.1092620006
-0.0742385630 0.7749737270 -0.0172222063
-0.0744699603 0.7769279171 -0.0062236916
-0.0643273838 0.7779175519 -0.0048756111
-0.0457113174 0.7714371936 -0.0483229008
-0.2614848106 0.7379785286 0.1919658179
-0.2030637529 0.7358064663 -0.1027208143
-0.2190382745 0.7365874560 -0.0727014523
-0.2306823715 0.7345145090 -0.0644893777
-0.1052152733 0.7746078376 0.1977282930
-0.0662476039 0.7785575937 0.1944700676
-0.1472245278 0.7653533464 0.2029965235
-0.0369563025 0.7841469425 0.1517715600
-0.0296556495 0.7842979516 0.1649416884
-0.1697919466 0.7485018851 -0.0786447091
-0.1832887671 0.7465502629 -0.0709061674
-0.1571121362 0.7644969076 0.1991649953
-0.2740727119 0.7345472446 0.1775557512
-0.2543487335 0.7421185227 0.1492657794
-0.2619134601 0.7393484347 0.1563523232
-0.0977982775 0.7652771278 -0.0581352941
-0.1134847934 0.7642789685 -0.0493462693
-0.1147569844 0.7581404489 -0.0819461156
-0.1180867069 0.7580425753 -0.0794128966
-0.2636536467 0.7334438467 -0.0083624454
-0.2387509148 0.7339192471 -0.0543808987
-0.2331525986 0.7396681043 -0.0337431904
-0.2332363192 0.7428751612 -0.0161007093
-0.2555936938 0.7267211109 -0.0614261071
-0.0718458888 0.7808732138 0.1731009762
-0.0773966484 0.7814743593 0.1514889024
-0.0825256028 0.7810973044 0.1507359499
-0.0637442217 0.7816594899 0.1047413218
-0.0308278353 0.7842184807 0.1192682150
-0.2817638808 0.7306050193 0.0444856233
-0.2507219244 0.7411627546 0.0232039592
-0.2685512929 0.7365473414 0.1045694206
-0.2458534770 0.7443286445 0.1007515761
-0.2547044049 0.7401846847 0.0453342830
-0.2617223009 0.7378738743 0.0530579451
-0.2476608847 0.7427368125 0.0502338870
-0.0280404855 0.7818105438 0.0113979505
-0.2458800172 0.7451496344 0.1443387477
-0.2425747443 0.7460153010 0.1280999241
-0.0656724151 0.7812107202 0.0898045084
-0.0347881847 0.7829817050 0.0699804443
-0.0729495047 0.7803321778 0.0728622281
-0.2479879689 0.7394793955 -0.0061961757
-0.1779485141 0.7640739719 0.1675078823
-0.1973152374 0.7482962680 -0.0418810963
-0.1834469366 0.7531989593 -0.0342396887
-0.1886388216 0.7527894896 -0.0292353814
-0.0327453166 0.7828357748 0.0576349054
-0.0224399188 0.7827148228 0.0229979970
-0.0233609393 0.7829974179 0.0374565994
-0.0764274713 0.7786709508 0.0120180345
-0.0749620276 0.7809246821 0.1093286199
-0.1419426171 0.7659002493 -0.0114717451
-0.1463563544 0.7617643377 -0.0307153423
-0.1443743339 0.7554320352 -0.0689653574
-0.1456465613 0.7653224117 -0.0108995020
-0.1526992156 0.7601441052 -0.0330347772
-0.1575122479 0.7688235638 0.1585791195
-0.1413646461 0.7719792454 0.1490491918
-0.1233098027 0.7748798632 0.1557139473
-0.1789358898 0.7640024882 0.1368215492
-0.1921852199 0.7606994058 0.1452316001
-0.0818282814 0.7774929770 0.0013565215
-0.0983484221 0.7744529511 -0.0015630622
-0.2088198800 0.7527634025 -0.0008364175
-0.1166844539 0.7747091906 0.0641222029
-0.1158611680 0.7761399313 0.1427929272
-0.1164463788 0.7752163801 0.0925172386
-0.1098716680 0.7759116916 0.0725680745
-0.1205598985 0.7750315379 0.1201117769
-0.1001847220 0.7782200514 0.1207343840
-0.2150508648 0.7524219221 0.0323616786
-0.2296937506 0.7483235295 0.0342439151
-0.1646948318 0.7672290252 0.1120805826
-0.1655220855 0.7673554733 0.1291310967
-0.1662220513 0.7667519661 0.1075898577
-0.1885399301 0.7598551375 0.0457431280
-0.1730491589 0.7641244612 0.0698744979
-0.1732112586 0.7640999979 0.0702895491
-0.1686283767 0.7652310625 0.0736401252
-0.1798575527 0.7611853403 0.0216854957
-0.1155737398 0.7741255429 0.0269592217
-0.1463417280 0.7708649819 0.1117555110
-0.1404292624 0.7706380173 0.0554816741
-0.1349684430 0.7720762065 0.0806904311
0.0739680294 -0.2806518883 0.8080610355
0.1099139137 -0.2612073324 0.8564417673
0.0294258544 -0.2946037405 0.8900260770
-0.5880723425 -0.4504635908 -0.1680191516
0.7329680646 -0.2258497436 -0.0616782179
0.7420770177 -0.1947527204 -0.0603284676
0.0161160548 -0.2916738421 0.8461100270
0.0801647101 -0.2694883893 0.9014434890
0.2229911316 -0.3246354699 -0.7076088061
-0.1985935735 -0.3371051761 0.5784266330
-0.1954726746 -0.3521502150 0.5732213066
-0.2050319629 -0.3191271174 0.5840431569
0.0892171053 -0.2959058315 0.8104981061
-0.4325353658 -0.4474121294 -0.4261480114
-0.4370646714 -0.4343685426 -0.4364283549
0.6566857401 -0.2109191992 -0.3126767023
0.6437629299 -0.2395729386 -0.3189342522
0.6522722047 -0.2334283347 -0.3047426178
0.6714958440 -0.2349586419 -0.2603542446
0.6347483039 -0.2203164111 -0.3479096987
0.5743011624 -0.2503808190 -0.4209119320
0.5974078792 -0.2404616752 -0.3922628692
0.5747888978 -0.2447291489 -0.4235973387
0.6101616067 -0.2485545483 -0.3682477040
-0.1340627302 -0.3989260965 -0.6766516278
-0.1560643156 -0.3925527540 -0.6751279602
0.1962022396 -0.3505773576 -0.6990465023
0.2238256961 -0.3455048915 -0.6866583905
-0.0118081067 -0.3814396960 -0.7214978322
-0.0073456139 -0.3912950059 -0.7117092968
0.7287803807 -0.2185725485 -0.0891519112
0.4400014073 -0.2854296158 -0.5611394136
0.4199550142 -0.2935839143 -0.5747521011
0.4156767457 -0.3184129756 -0.5623597876
0.4308223858 -0.2381632947 0.5304113609
0.4375079452 -0.2319102616 0.5288513031
0.4834794777 -0.2466264337 0.5064150102
0.0816969048 -0.3626289344 -0.7313227299
0.0843903524 -0.3793522830 -0.7146830285
-0.6103839186 -0.4705796931 -0.0164167531
-0.6122545068 -0.4753450255 0.0281313737
-0.6074668702 -0.4796880567 0.0186018148
-0.5391754060 -0.4426573157 0.3873519303
-0.5323841537 -0.4269476777 0.4050118985
-0.6004625085 -0.4799455312 0.2257108414
-0.5546492266 -0.4425801958 0.3718389373
0.7431548266 -0.1910287837 0.2478694651
0.0614385865 -0.2973609773 0.9037630263
-0.0786473949 -0.3912370398 -0.7033916975
0.0538140660 -0.3013687239 0.9024710819
0.5624875023 -0.2001328499 0.4713813067
0.5742377784 -0.2043098824 0.4627383390
0.5403776780 -0.2107270133 0.4830179415
0.5590010766 -0.2311108353 0.4665324470
0.5372346184 -0.2269774130 0.4812926396
-0.1399184777 -0.4282310623 -0.6470379389
-0.3235315182 -0.4105876744 0.5177016981
-0.3047759688 -0.3996416621 0.5270589988
0.2477646877 -0.3346459749 -0.6810024579
-0.5940387350 -0.5011323646 0.0711068262
-0.6215575735 -0.4667166502 0.0727141326
-0.5929243932 -0.5028145772 0.0648862166
-0.6008650407 -0.4918193576 0.0878915668
0.1160337519 -0.3020919112 0.8683006791
-0.0374548689 -0.2919723052 0.6289543902
-0.0328277948 -0.3070123396 0.6210070926
0.6874195609 -0.2162830359 -0.2379445625
0.6835294708 -0.2202103756 -0.2442189514
0.6915941464 -0.2301432835 -0.2181020646
-0.2377609736 -0.4074894830 -0.6219034558
-0.2255528847 -0.3994517164 -0.6367726251
-0.2146291475 -0.4143583384 -0.6277301582
-0.1868734740 -0.4065133242 -0.6491851528
-0.2130992878 -0.4262271743 -0.6165736968
0.1923305934 -0.3671647967 -0.6851937857
0.1146843443 -0.2873053956 0.8487474516
-0.5910674218 -0.4950683033 0.2025193356
-0.6121704397 -0.4717881768 0.1711895883
-0.6031841107 -0.4842568299 0.1545003964
-0.6010571143 -0.4880553079 0.1405010548
0.2744407699 -0.2571970714 0.5855772768
0.2615648400 -0.2625316814 0.5881995922
0.4573914084 -0.2704210832 -0.5520369217
-0.4127302935 -0.4084710321 0.4843738595
-0.4361122367 -0.4118440771 0.4707988132
-0.5579363276 -0.4686349067 0.3391932257
-0.3466202982 -0.4554964033 -0.4998033602
-0.4754593588 -0.4312330654 0.4402052365
-0.4915602039 -0.4245750258 0.4344082134
0.6201149321 -0.2620628480 -0.3450664043
0.2191205164 -0.2956214580 0.5900036647
0.2227844011 -0.2936673444 0.5895018132
0.2056080546 -0.2771607850 0.6020208401
-0.5726462210 -0.4715763496 -0.1614269725
-0.5713951612 -0.4734939489 -0.1603335638
-0.5910801341 -0.4594072069 -0.1342364972
-0.5674173535 -0.4866312355 -0.1379467635
0.5049346318 -0.2761941712 -0.4965070034
0.4866367719 -0.2734311066 -0.5184593783
0.7521128719 -0.1740922717 0.2250480357
0.7384107956 -0.2216799368 0.2256126693
0.7371877576 -0.2275635307 0.2219799714
-0.6043220802 -0.4697766798 -0.0593148651
0.1092571349 -0.3523456707 -0.7345137031
0.0955413758 -0.3743908314 -0.7169977022
-0.2645181432 -0.4427977619 -0.5713225607
-0.5869811477 -0.4892517072 -0.0641622568
-0.5908494205 -0.4886807814 -0.0468020358
0.5456448466 -0.2544336190 -0.4611847223
0.0225198336 -0.3285717693 0.8550207195
0.6295821765 -0.2077162846 0.4225809961
0.6100181449 -0.2130235679 0.4355945440
0.6384657603 -0.2645190515 -0.3096510861
0.6446783445 -0.2642119205 -0.2957159226
-0.0384023794 -0.4106877721 -0.6872302074
0.7165859666 -0.2101141837 -0.1477083235
0.7097948326 -0.2117154294 -0.1723303149
0.0588017128 -0.3148602347 0.8029773134
0.1122224658 -0.3089807475 0.8243141567
0.1519675167 -0.3862533667 -0.6849370860
0.1525932715 -0.3871987351 -0.6836970379
-0.1183630873 -0.4201049986 -0.6614076970
-0.0825155626 -0.4095394013 -0.6804296221
0.0406966858 -0.3376672110 0.8865918706
0.7573930743 -0.1816021446 0.0989700975
0.7473116801 -0.2106310400 0.1351054680
0.7462062610 -0.2167072372 0.1210892864
0.7543399267 -0.1858865642 0.1379201541
0.0387851976 -0.3204276788 0.8134524512
-0.5651809598 -0.5002021663 -0.1081083954
-0.5779533306 -0.4816327470 -0.1170117082
0.0462525482 -0.3143895702 0.8974013480
0.1504046563 -0.2686526879 0.6217816181
0.1270249566 -0.2516526172 0.6360208706
0.4644314847 -0.2864915244 -0.5339507596
0.4688084747 -0.2675244014 -0.5414615889
0.4705317278 -0.2937478784 -0.5227866891
0.5049865531 -0.3084089368 -0.4766324263
0.6982114586 -0.2185416750 0.3360821007
0.7061839845 -0.2158313450 0.3195741419
0.1188757819 -0.3041211873 0.8483814426
-0.3633429211 -0.3992700969 0.5090597561
0.3499558503 -0.3282847048 -0.6131530956
0.3733289592 -0.3327581069 -0.5899211835
0.3300950179 -0.3123294835 -0.6415519773
0.3381366514 -0.3303939253 -0.6208681566
0.3480840568 -0.3534772705 -0.5946962982
-0.5926015560 -0.4604791167 0.2876468310
-0.5950164925 -0.4573665093 0.2877239388
-0.5768667543 -0.4947551876 0.2665611233
-0.5818646918 -0.4579505076 0.3112590524
-0.3742287766 -0.4632098179 -0.4684610423
-0.6158979764 -0.4722976380 0.0370259193
-0.5923859842 -0.4954295190 0.0016734872
-0.4879634935 -0.4728816435 -0.3311934309
0.0608240804 -0.3265616153 0.7975652204
-0.0323290783 -0.4042634252 -0.6962207116
0.6560125965 -0.2737505391 -0.2612447118
0.6374531131 -0.2814194760 -0.2966045618
0.7492328727 -0.1945256162 -0.0014724024
0.7437050748 -0.2130814425 -0.0026166475
0.7451708611 -0.2171796194 0.0197205458
0.7376175293 -0.2208528363 -0.0348154782
-0.3291766506 -0.4510843903 -0.5174414439
-0.3376402696 -0.4629286812 -0.4988967970
-0.2997458762 -0.4330747618 -0.5579107208
-0.3147906733 -0.4375450621 -0.5421104682
0.2524406936 -0.3494757057 -0.6663672000
0.2542720723 -0.3567044637 -0.6595046410
-0.0614042873 -0.3467786170 0.5981617476
-0.4170710547 -0.4677856837 -0.4193438852
0.5498095105 -0.2488577446 0.4679943738
0.5533642841 -0.2549840913 0.4642145714
-0.2768373534 -0.4547923897 -0.5512794308
-0.2713543387 -0.4468847343 -0.5631035366
-0.0327265803 -0.3338989734 0.6065336332
-0.0169726734 -0.3367898692 0.6058633459
-0.0586638943 -0.3595807434 0.5922569746
0.0149371809 -0.3469721188 0.6007673718
-0.5537722771 -0.4961313056 -0.1567055561
0.3768203926 -0.3353444540 -0.5850207841
0.6890692666 -0.2573075761 -0.1939035926
0.6788863668 -0.2622280767 -0.2184463043
-0.4015853443 -0.4630938494 0.4632024853
-0.4070724691 -0.4218671843 0.4806392081
0.0759166716 -0.3204848628 0.9015362574
-0.2033111327 -0.4459300390 -0.6011835111
-0.1904352398 -0.4542087571 -0.5986327913
-0.2274457150 -0.4517776960 -0.5837228565
-0.1429682743 -0.4400556989 -0.6333407639
-0.1588591831 -0.4379385456 -0.6293599265
-0.1596911360 -0.4305927990 -0.6368700682
-0.3893625590 -0.4449258917 0.4777682231
-0.3929706981 -0.4654273007 0.4662348767
0.7130123609 -0.2380294690 -0.1278623739
0.0319714444 -0.3379272853 0.8189693357
-0.5861684154 -0.4908023596 0.2514646459
0.1443408917 -0.3036048532 0.6063951053
0.1310653191 -0.2941495116 0.6141312682
