0.1222263082 0.4739449923 0.1414035682
0.1582226239 0.4701538609 0.1036998017
0.1861926974 0.4643427413 0.0508611444
0.1937426518 0.4575582135 0.0174143729
0.1959033967 0.4496510479 -0.0226596757
0.1444807606 0.4322700901 -0.1430393429
0.1556070660 0.4308651717 -0.1289547583
0.1692585310 0.4237725611 -0.1130116865
0.1597769304 0.4160187778 -0.1267063477
0.1483806489 0.4104480263 -0.1421304931
0.1541763769 0.3307968188 -0.1348046107
0.1508709268 0.1884918041 -0.1391125250
0.1459697376 -0.4274916010 -0.1455001281
0.1727932868 0.3518385408 -0.1105416360
0.1499989404 -0.6363028902 -0.1402489642
0.1731952996 0.2760693547 -0.1100177023
0.1632968016 -0.0511529534 -0.1229181786
0.1471800179 0.3861674348 -0.1439227986
0.1516962465 0.1926253872 -0.1380369055
0.1506424357 -0.6003333655 -0.1394103121
0.1736902817 0.2960304144 -0.1093726039
0.1629601553 0.0880659242 -0.1233569218
0.1464936201 -0.0929015142 -0.1448173645
0.1542715975 -0.1578566464 -0.1346805121
0.1570343719 0.1325067793 -0.1310798540
0.1688146384 0.3367061748 -0.1157269136
0.1502233673 0.2832048743 -0.1399564739
0.1686370210 0.3730050346 -0.1159583980
0.1536330908 0.2296826589 -0.1355126626
0.1474550693 0.1728563450 -0.1435643307
0.1577220493 0.0729608559 -0.1301836204
0.1502250705 -0.5360577745 -0.1399542542
0.1518791403 -0.2939351569 -0.1377985444
0.1582422470 0.3611288080 -0.1295056592
0.1467604712 -0.0126470610 -0.1444695839
0.1616690990 -0.0700196103 -0.1250395247
0.1733288670 0.2755378462 -0.1098436270
0.1712225221 0.2454623719 -0.1125887762
0.1722652791 0.3340638072 -0.1112297758
0.1676144972 0.4024359758 -0.1172910289
0.1634385310 0.2519082854 -0.1227334661
0.1523763157 0.2450315660 -0.1371505877
0.1575565726 0.1803679930 -0.1303992823
0.1673013652 0.3892131167 -0.1176991265
0.1477624058 -0.5926052347 -0.1431637864
0.1741486386 0.3999955992 -0.1087752383
0.1511459431 -0.2997676687 -0.1387541029
0.1648495865 -0.0630524731 -0.1208944711
0.1545784688 0.3390403288 -0.1342805739
0.1562743300 -0.3536314532 -0.1320703984
0.1520669871 -0.5532714404 -0.1375537282
0.1729853354 0.3712101132 -0.1102913436
0.1517916608 0.2012512928 -0.1379125544
0.1549577649 -0.4510545096 -0.1337862465
0.1568740710 -0.0011787113 -0.1312887703
0.1487218773 -0.4683922245 -0.1419133301
0.1523934439 0.1379310405 -0.1371282648
0.1606049782 -0.1317502803 -0.1264263680
0.1628843401 0.3840428799 -0.1234557299
0.1568895991 -0.1478744714 -0.1312685330
0.1459467552 0.1526007875 -0.1455300806
0.1717582394 0.3624295780 -0.1118905885
0.1587881413 0.2571878627 -0.1287942082
0.1725160527 0.3193688623 -0.1109029486
0.1480511373 -0.3895407573 -0.1427874895
0.1661704219 0.2435815104 -0.1191730579
0.1706900864 0.2861260423 -0.1132826869
0.1688792954 0.0805112032 -0.1156426476
0.1463208018 -0.3613075258 -0.1450425945
0.1509741161 0.3894447408 -0.1389780409
0.1717150828 0.3030365758 -0.1119468336
0.1587071312 -0.0795485188 -0.1288997867
0.1511802519 0.0387419152 -0.1387093891
0.1561304366 -0.1536151284 -0.1322579314
0.1498218134 0.3263437540 -0.1404798095
0.1527981381 0.2722787871 -0.1366008366
0.1499419166 -0.2232472854 -0.1403232819
0.1571251928 -0.2668091208 -0.1309614892
0.1499195967 0.1188142422 -0.1403523708
0.1577997692 0.1379135658 -0.1300823299
0.1679839049 0.0376734829 -0.1168095887
0.1699090251 0.1841847294 -0.1143006255
0.1647454657 0.1798764319 -0.1210301694
0.1532655818 0.3381165015 -0.1359916283
0.1501393709 -0.0746317967 -0.1400659444
0.1650697939 -0.0018736806 -0.1206074800
0.1645726471 0.3533494880 -0.1212553997
0.1530332298 -0.2676435388 -0.1362944470
0.1594482480 -0.0862733025 -0.1279339068
0.1499689954 -0.5497562522 -0.1402879908
0.1459299147 0.1053225591 -0.1455520283
0.1756059275 0.2977800320 -0.1068759884
0.1634161000 0.2418033714 -0.1227626999
0.1628550994 0.1819534865 -0.1234938387
0.1473124281 -0.3753087487 -0.1437502315
0.1468619730 0.3953807965 -0.1443372989
0.1742808721 0.2797517361 -0.1086029015
0.1527726309 -0.0645064255 -0.1366340794
0.1486193924 0.0165816867 -0.1420468961
0.1619784245 0.0937692278 -0.1246363881
0.1555683137 0.1125278289 -0.1329905328
0.1515631829 -0.2882209353 -0.1382103242
0.1466912596 -0.4494054919 -0.1445597856
0.1574888227 -0.3341254353 -0.1304875792
0.1659671703 0.2838331910 -0.1194379508
0.1638245026 0.3678615537 -0.1222304386
0.1490967590 -0.0999623490 -0.1414247557
0.1482443965 0.0716858890 -0.1425356194
0.1540525269 0.2005344519 -0.1349660215
0.1485871070 0.1503204998 -0.1420889729
0.1464483079 -0.6219940828 -0.1448764188
0.1625412622 -0.0310892403 -0.1239028551
0.1617289015 -0.1774947846 -0.1249615855
0.1626881534 -0.1091753044 -0.1237114154
0.1528776365 -0.2276857500 -0.1364972281
0.1510729249 -0.5356918276 -0.1388492658
0.1679640437 0.1363641233 -0.1168354733
0.1492664874 -0.3292977692 -0.1412035527
0.1481440870 0.2752553581 -0.1426663504
0.1612980201 0.0449988515 -0.1255231430
0.1630167545 0.2700350420 -0.1232831575
0.1516547699 -0.2822286487 -0.1380909610
0.1467773283 -0.3206544834 -0.1444476144
0.1556393826 -0.1940179658 -0.1328979103
0.1695573170 0.2273795276 -0.1147589983
0.1530157163 0.1573552211 -0.1363172720
0.1539855543 0.0974469016 -0.1350533053
0.1602368967 0.3096458283 -0.1269060798
0.1460764069 -0.3347490148 -0.1453611086
0.1554421672 0.3939684741 -0.1331549365
0.1493617296 -0.4187905368 -0.1410794257
0.1500908909 0.3957941522 -0.1401291272
0.1680269636 0.1871387014 -0.1167534714
0.1698301573 0.2273703759 -0.1144034120
0.1611766006 0.3947214759 -0.1256813861
0.1605780126 -0.0819078808 -0.1264615116
0.1557291523 -0.2668828970 -0.1327809156
0.1527856431 0.2892361031 -0.1366171210
0.1549021253 -0.4429411620 -0.1338587601
0.1727063183 0.3240774018 -0.1106549800
0.1632389952 0.1684982031 -0.1229935164
0.1631237222 0.0848554237 -0.1231437490
0.1490641583 -0.2731862929 -0.1414672433
0.1758047799 0.3631313277 -0.1066168288
0.1634299418 -0.0745005098 -0.1227446603
0.1694402345 0.1670130224 -0.1149115891
0.1614609957 -0.0711376495 -0.1253107407
0.1523343334 0.1936169480 -0.1372053022
0.1491540209 -0.0628848130 -0.1413501276
0.1599848609 -0.0396644333 -0.1272345520
0.1534925587 0.1546809410 -0.1356958147
0.1463292262 -0.3228331329 -0.1450316152
0.1502963341 -0.5898934794 -0.1398613780
0.1501455893 0.2459849056 -0.1400578401
0.1597993632 0.0280059934 -0.1274763068
0.1599077912 0.1211088878 -0.1273349952
0.1513663735 -0.3993942184 -0.1384668212
0.1495121597 -0.5508457856 -0.1408833738
0.1690576929 0.3268914224 -0.1154101464
0.1522646829 -0.4002423534 -0.1372960759
0.1460525348 -0.7521163568 -0.1453922205
0.1641848247 0.3956508308 -0.1217608393
0.1611906949 0.1533189757 -0.1256630173
0.1617901680 0.2068617493 -0.1248817384
0.1494396914 -0.6010532689 -0.1409778200
0.1490022809 -0.5849543544 -0.1415478868
0.1501533733 -0.2161740194 -0.1400476954
0.1532702383 -0.3715334307 -0.1359855596
0.1543258236 -0.1018402453 -0.1346098404
0.1759810554 0.4021330751 -0.1063870932
0.1515847093 -0.4744367022 -0.1381822693
-0.1159340142 -0.6112754502 0.1684208013
-0.1330056059 -0.7272639452 0.1553218187
-0.1181561778 -0.6064287581 0.1667157416
-0.1130938615 -0.2618454186 0.1706000422
-0.1089595574 0.2045676103 0.1737722817
-0.1233382303 -0.3273916245 0.1627395678
-0.1060138221 0.2559669105 0.1760325358
-0.1315025522 -0.7122111190 0.1564751075
-0.1265858708 -0.7414093916 0.1602476628
-0.1396414322 -0.6857290275 0.1502301685
-0.1235165619 -0.5094062662 0.1626027345
-0.1315584950 -0.7433227003 0.1564321827
-0.1194670579 -0.5672096119 0.1657099071
-0.1310576085 -0.7860461180 0.1568165114
-0.1116579461 -0.6470637143 0.1717018159
-0.1283640818 -0.4343254230 0.1588832466
-0.1051913449 -0.7053932173 0.1766636201
-0.1093180941 -0.5385555010 0.1734971775
-0.1128420427 -0.7393769397 0.1707932621
-0.1303520735 -0.4084215448 0.1573578664
-0.1293195591 -0.5280145601 0.1581501117
-0.1118965250 -0.6111040599 0.1715187550
-0.1191908588 -0.6871076415 0.1659218340
-0.1239713080 -0.6473041419 0.1622538092
-0.1090323752 -0.6498544188 0.1737164088
-0.1139696804 -0.6771669176 0.1699280289
-0.1081635077 -0.2105320014 0.1743830883
-0.1295223273 -0.6540661097 0.1579945282
-0.1131941013 -0.4604857790 0.1705231285
-0.1295924807 -0.5276410256 0.1579406998
-0.1331881131 -0.6343252277 0.1551817814
-0.1047736015 -0.6521430847 0.1769841535
-0.1292357493 -0.4710242978 0.1582144187
-0.1165245897 -0.4134050427 0.1679676545
-0.1319093705 -0.6030865230 0.1561629569
-0.1042574588 -0.1242703030 0.1773801883
-0.1240298641 -0.7072491479 0.1622088793
-0.1231843375 -0.5063899473 0.1628576494
-0.1088076611 -0.4862364898 0.1738888313
-0.1286500396 -0.3441860260 0.1586638321
-0.1162375392 -0.5961928025 0.1681879074
-0.1070147978 0.0347853837 0.1752644900
-0.1059104048 -0.3337192913 0.1761118876
-0.1299360788 -0.4985873991 0.1576770579
-0.1147669052 -0.4934889783 0.1693163206
-0.1214622755 -0.2240239202 0.1641789826
-0.1289048867 -0.7544273619 0.1584682886
-0.1379168901 -0.7559709043 0.1515534047
-0.1043822402 0.2182639935 0.1772844438
-0.1378061632 -0.7728520492 0.1516383651
-0.1046656209 -0.6009472818 0.1770670067
-0.1041860885 -0.0292025670 0.1774349505
-0.1040439880 -0.4303210880 0.1775439838
-0.1037588971 -0.4228304992 0.1777627332
-0.1057242048 0.0148615587 0.1762547583
-0.1186172438 -0.0626770749 0.1663619670
-0.1261766249 -0.7422915041 0.1605616759
-0.1289789666 -0.5618644781 0.1584114473
-0.1081984157 0.1776513824 0.1743563035
-0.1029213332 0.3366494732 0.1784053936
-0.1133972688 -0.1310971693 0.1703672386
-0.1198114582 -0.0765556681 0.1654456498
-0.1100006063 0.0608356552 0.1729734879
-0.1286165753 -0.6141837170 0.1586895091
-0.1183119477 -0.0453539366 0.1665962198
-0.1148880340 -0.1103092537 0.1692233789
-0.1102127690 -0.6367803136 0.1728106961
-0.1111188899 0.1026875497 0.1721154322
-0.1168941791 -0.6753998774 0.1676840696
-0.1046537983 -0.1189748765 0.1770760781
-0.1186079310 -0.0474526927 0.1663691127
-0.1137342045 -0.4129632791 0.1701087089
-0.1131248078 0.0035182331 0.1705762972
-0.1243693493 -0.2112251088 0.1619483932
-0.1257219339 -0.5720881955 0.1609105590
-0.1194813637 -0.5123121369 0.1656989304
-0.1178919418 -0.3405006117 0.1669184892
-0.1067441875 -0.3550091586 0.1754721286
-0.1329621891 -0.6157606584 0.1553551323
-0.1049783452 0.0139173357 0.1768270542
-0.1316998035 -0.4688118121 0.1563237571
-0.1140516846 -0.0092956555 0.1698651073
-0.1268059062 -0.4271235956 0.1600788302
-0.1200582025 -0.5312545476 0.1652563236
-0.1159078774 -0.4316549458 0.1684408560
-0.1253046186 -0.4544261462 0.1612307639
-0.1239613861 -0.1869163824 0.1622614222
-0.1029876620 0.0190927991 0.1783544997
-0.1088357911 -0.5417832660 0.1738672472
-0.1315671606 -0.6942873544 0.1564255336
-0.1058932189 -0.5687385874 0.1761250743
-0.1216615124 -0.1713265177 0.1640261086
-0.1078309840 -0.1564793165 0.1746382327
-0.1252118481 -0.3163080707 0.1613019464
-0.1052550174 -0.1373566241 0.1766147644
-0.1047856428 -0.4275402304 0.1769749142
-0.1124402047 -0.2135140475 0.1711015912
-0.1207683173 -0.4148226249 0.1647114546
-0.1422967778 -0.7319977885 0.1481927296
-0.1248938160 -0.3930892396 0.1615459715
-0.1159896155 -0.7489645880 0.1683781386
-0.1037061166 -0.2733842943 0.1778032315
-0.1264714349 -0.5708135964 0.1603354691
-0.1154434836 -0.4514002694 0.1687971840
-0.1098437122 -0.4032873901 0.1730938723
-0.1294310294 -0.7541949722 0.1580645809
-0.1433537688 -0.7711754726 0.1473817034
-0.1247653520 -0.4608317183 0.1616445415
-0.1209782788 -0.4527349270 0.1645503518
-0.1214720783 -0.3683923943 0.1641714609
-0.1184894751 -0.0671185731 0.1664600036
-0.1074031575 -0.2363458920 0.1749665028
-0.1123823691 -0.3998812284 0.1711459683
-0.1033508738 0.2526174227 0.1780758083
-0.1163367128 -0.2702516132 0.1681118118
-0.1122872339 -0.7569425764 0.1712189652
-0.1252097667 -0.5977970121 0.1613035434
-0.1075120773 -0.5188452571 0.1748829289
-0.1203993661 -0.2899574206 0.1649945498
-0.1046422428 -0.4501671375 0.1770849446
-0.1217354259 -0.6490018623 0.1639693950
-0.1085060027 -0.0191237920 0.1741202929
-0.1168109004 -0.6048510475 0.1677479691
-0.1187338425 -0.3027560463 0.1662725012
-0.1088697491 -0.6686590417 0.1738411914
-0.1157325703 -0.5607918148 0.1685753686
-0.1376905931 -0.6213072694 0.1517270417
-0.1288296857 -0.7290344679 0.1585259901
-0.1144443461 -0.6039189085 0.1695638193
-0.1062631077 -0.3272317200 0.1758412597
-0.1112908172 0.1422714254 0.1719835128
-0.1130825296 -0.0547197704 0.1706087371
-0.1057489752 -0.0750411470 0.1762357521
-0.1234543371 -0.4525811312 0.1626504795
-0.1220540521 -0.4742948082 0.1637249141
-0.1082358160 0.0683387406 0.1743276064
-0.1236332721 -0.1925254936 0.1625131832
-0.1131111923 -0.3213043495 0.1705867444
-0.1112283081 -0.6567809378 0.1720314759
-0.1044904345 -0.2944960186 0.1772014267
-0.1058190166 -0.5034812973 0.1761820095
-0.1087018667 0.1766502829 0.1739700070
-0.1054497802 -0.0454718414 0.1764653235
-0.1126911041 -0.5644610597 0.1709090767
-0.1199907871 -0.4047200075 0.1653080513
-0.1187937042 -0.1459578467 0.1662265695
-0.1163479249 -0.4668414176 0.1681032089
-0.1285212644 -0.5824460632 0.1587626409
-0.1161444458 -0.3814142202 0.1682593378
-0.1236960686 -0.2445883002 0.1624649995
-0.1278586686 -0.3137484846 0.1592710487
-0.1056767754 -0.7013562901 0.1762911508
-0.1051664192 -0.1232341144 0.1766827456
-0.1072025724 -0.4646482181 0.1751204112
-0.1072683638 -0.4061086081 0.1750699296
-0.1197357875 -0.5402244168 0.1655037117
-0.1031294808 -0.3867897832 0.1782456825
-0.1119520819 0.0454287784 0.1714761263
-0.1097013804 -0.2410751300 0.1732030831
-0.1091937536 -0.1031634399 0.1735925836
-0.1354517451 0.4068877563 0.1533774503
-0.1456962670 0.4118494379 0.1451817173
-0.1524581838 0.4333106287 0.1319064307
-0.1691434245 0.4397580085 0.1077643891
-0.1709769940 0.4497983595 0.1005702910
-0.1422288785 0.4542020190 0.1355111680
-0.0466890259 0.4639412812 0.1870075429
-0.0600115917 0.4585686723 0.1848664012
-0.1072435932 0.4596355662 0.1613100052
0.0090639192 0.4612989942 0.1931450036
-0.1760157455 0.4304778518 0.1020991256
0.0629514515 0.4705213079 0.1778673141
0.1017937187 0.4755522379 0.1559755581
0.1423842896 0.4724735684 0.1223078292
0.1834602950 0.4646154990 0.0571310585
0.1877813017 0.4635377980 0.0433386023
0.1944826415 0.4517962398 -0.0281817599
0.1903206151 0.4510866954 -0.0545447711
0.1685918161 0.4421732299 -0.1077856491
0.1350316258 0.4297628436 -0.1511332113
0.1245978780 0.4208961944 -0.1607554730
0.1400666454 0.4145057064 -0.1496158286
0.1048876650 0.4048896346 -0.1770792002
0.1284537261 0.1777317929 -0.1590043645
0.1243949057 0.0204956987 -0.1621186855
0.1403644690 -0.3629040615 -0.1498652861
0.1425427924 -0.2316813738 -0.1481938649
0.1203072242 0.0588633789 -0.1652551517
0.1321417123 0.3453946776 -0.1561745834
0.1372764282 -0.2115853928 -0.1522347308
0.1288572735 -0.1952439270 -0.1586947237
0.1359765718 -0.2692609041 -0.1532321069
0.1308974046 0.1057769179 -0.1571293371
0.1235165739 0.3809592850 -0.1627926270
0.1319667413 0.2852330791 -0.1563088382
0.1206181663 0.2982616251 -0.1650165667
0.1336951366 -0.1652344789 -0.1549826455
0.1444353727 -0.6346981657 -0.1467416936
0.1323029944 -0.3419022315 -0.1560508322
0.1158021321 0.2052281457 -0.1687118957
0.1358025450 0.1755782262 -0.1533656371
0.1114797380 0.3213019518 -0.1720284561
0.1417377145 -0.2800040331 -0.1488115988
0.1453471608 -0.1805948774 -0.1460420812
0.1207326641 0.0580576322 -0.1649287128
0.1402609644 -0.2366579999 -0.1499447049
0.1278289096 0.0047500130 -0.1594837843
0.1395302839 0.0696334138 -0.1505053540
0.1379159126 0.3892832036 -0.1517440564
0.1104288977 0.2750375762 -0.1728347628
0.1210038679 0.2669927349 -0.1647206190
0.1399456582 0.3110395425 -0.1501866384
0.1413394629 -0.0825965562 -0.1491171761
0.1395323538 -0.5017728360 -0.1505037657
0.1104950854 0.2599335172 -0.1727839772
0.1436410245 0.1608059905 -0.1473511947
0.1320750129 0.4012481710 -0.1562257617
0.1360585979 0.1912037011 -0.1531691685
0.1353522867 0.0438902403 -0.1537111190
0.1454856276 0.2360108960 -0.1459358361
0.1317519951 0.2028758611 -0.1564736123
0.1266832478 0.2203936752 -0.1603628473
0.1219360190 -0.0368868533 -0.1640053821
0.1379722420 0.0560078015 -0.1517008350
0.1405380190 -0.3312924263 -0.1497321217
0.1349888771 0.2260380498 -0.1539899622
0.1131717097 0.3591825311 -0.1707302112
0.1306421124 0.2505696071 -0.1573252221
0.1136347314 0.1874979783 -0.1703749359
0.1307074005 0.0046659816 -0.1572751267
0.1456696476 -0.0062795693 -0.1457946381
0.1179512941 0.2543156637 -0.1670628500
0.1097740830 0.2308659392 -0.1733372003
0.1457215972 -0.4638926667 -0.1457547773
0.1211979295 0.0442356395 -0.1645717161
0.1419441523 -0.5604292613 -0.1486531997
0.1398534291 0.3683409291 -0.1502574056
0.1426527597 -0.2216028029 -0.1481094874
0.1373777780 0.2004700996 -0.1521569655
0.1183815945 0.2438779930 -0.1667326818
0.1448772605 -0.2567422452 -0.1464026344
0.1356274577 0.0008911711 -0.1534999811
0.1334600605 -0.0744014655 -0.1551630187
0.1457064004 -0.7012927116 -0.1457664377
0.1245492157 -0.1199148633 -0.1620002839
0.1110164492 0.3716018325 -0.1723839362
0.1201747821 0.0703917385 -0.1653567741
0.1367587266 -0.1011528922 -0.1526319618
0.1278097478 -0.0054117759 -0.1594984871
0.1372329854 -0.3875831859 -0.1522680644
0.1373015234 -0.4298539960 -0.1522154754
0.1229347918 -0.0880796929 -0.1632390267
0.1311293174 -0.2538003648 -0.1569513911
0.1363967990 0.0136622470 -0.1529096678
0.1197890668 -0.0210024928 -0.1656527323
0.1218294392 -0.0535786259 -0.1640871605
0.1084332737 0.2925096785 -0.1743659993
0.1187985181 0.2664731080 -0.1664127774
0.1413247258 -0.4196549295 -0.1491284839
0.1283303400 -0.2338084458 -0.1590990383
0.1183454658 0.3710743802 -0.1667604032
0.1293574787 0.0485634583 -0.1583109177
0.1370632501 -0.0993427247 -0.1523983018
0.1357008350 -0.2198023960 -0.1534436789
0.1134452446 0.3208441014 -0.1705203286
0.1433483652 0.0170325220 -0.1475757513
0.1247595978 -0.0015198297 -0.1618388584
0.1410420901 0.1532362276 -0.1493453494
0.1410129834 -0.3352410125 -0.1493676829
0.1432909783 -0.1540914445 -0.1476197841
0.1403649075 -0.3087505486 -0.1498649497
0.1247664093 -0.1747096007 -0.1618336319
0.1455401159 -0.1448841375 -0.1458940273
0.1049634511 0.3781489439 -0.1770283841
0.1398516049 -0.4485102814 -0.1502588053
0.1137593654 0.2657903052 -0.1702793047
0.1263469943 0.3329939415 -0.1606208537
0.1206284087 0.0721107835 -0.1650087078
0.1428041002 -0.0810036547 -0.1479933642
0.1186703564 0.3149815540 -0.1665111156
0.1409272348 -0.6339424136 -0.1494334776
0.1451808289 0.0160834732 -0.1461697072
0.1338091111 0.1965634256 -0.1548951932
0.1371853417 0.3645571599 -0.1523046213
0.1324873456 0.3067241005 -0.1559093800
0.1385159023 0.2964495362 -0.1512836860
0.1447046757 -0.5657464962 -0.1465350582
0.1383664067 0.1925545060 -0.1513983935
0.1351191697 -0.2013452776 -0.1538899891
0.1336038013 0.2241966875 -0.1550527268
0.1434345967 0.0243444082 -0.1475095861
0.1223389305 -0.0516063791 -0.1636962294
0.1188049748 0.3521763522 -0.1664078232
0.1411872345 0.2147445511 -0.1492339806
0.1454256506 -0.0114329206 -0.1459818563
0.1379202442 -0.1156351131 -0.1517407327
0.1391765227 0.2301142627 -0.1507767939
0.1280936004 -0.2023986053 -0.1592806879
0.1374287739 0.2142840099 -0.1521178365
0.1453059356 -0.1131463089 -0.1460737132
0.1221723271 -0.0612441467 -0.1638240636
0.1312236959 -0.1527532006 -0.1568789747
0.1385678900 -0.1847330641 -0.1512437960
0.1206384288 0.3903642510 -0.1650010194
0.1199690219 0.2641613902 -0.1655146533
0.1150815090 0.3318377556 -0.1692648277
0.1162699638 0.2771246325 -0.1683529298
0.1449240896 -0.3735182692 -0.1463667025
0.1362903934 0.3137941978 -0.1529913125
0.1444424059 -0.7120967121 -0.1467362971
0.1434015814 0.1084116598 -0.1475349187
0.1356695863 0.0712942598 -0.1534676560
0.1278186378 0.2194157679 -0.1594916659
0.1387522372 -0.0752714325 -0.1511023469
0.1158558981 0.3584976903 -0.1686706412
0.1271594748 -0.1551799660 -0.1599974397
0.1285210829 -0.0913125178 -0.1589526818
0.1394601113 -0.2112288034 -0.1505591972
0.1287832824 0.3523804450 -0.1587514969
0.1391307401 -0.2055040482 -0.1508119227
0.1141714908 0.1698625710 -0.1699630820
0.1353502797 -0.3560768464 -0.1537126590
0.1419883531 0.3860708300 -0.1486192846
0.1346059202 -0.0141976330 -0.1542838039
0.1262626741 0.1743283457 -0.1606855523
0.1255879523 0.2282536378 -0.1612032644
0.1229464134 0.0385521896 -0.1632301095
0.1305862266 0.2988073914 -0.1573681031
0.1304485384 -0.2048327601 -0.1574737508
0.1319062246 -0.1743714752 -0.1563552724
0.1347894303 -0.0888972857 -0.1541429971
0.1444825964 0.1947770752 -0.1467054590
0.1422820930 -0.2528342461 -0.1483938988
0.1305761040 -0.3388439247 -0.1573758701
0.1239574711 -0.1697406853 -0.1624543279
0.1103271083 0.2573334690 -0.1729128655
0.1347917892 -0.0707348863 -0.1541411871
0.1307737588 -0.2590152942 -0.1572242101
0.1384948560 -0.0191275670 -0.1512998347
0.1332861289 0.0976068702 -0.1552964759
0.1429145221 0.0017712028 -0.1479086379
0.1266048463 0.1392619074 -0.1604230046
0.1337122184 0.1477977382 -0.1549695387
0.1418708697 -0.4056726228 -0.1487094293
-0.1443333374 -0.4622959077 0.1466300833
-0.1192241840 0.0993310247 0.1658962636
-0.1403625650 -0.5423286833 0.1496768455
-0.1269539527 0.0504545633 0.1599652346
-0.1380642907 -0.3062505330 0.1514403046
-0.1396118288 0.1963080866 0.1502528831
-0.1430834029 -0.1075827976 0.1475891544
-0.1220940649 0.1065711755 0.1636942123
-0.1370080706 -0.0560249266 0.1522507392
-0.1425559632 0.2753315549 0.1479938574
-0.1431708646 0.3427862112 0.1475220453
-0.1414979782 -0.6113880314 0.1488056462
-0.1152101384 0.1666480000 0.1689762291
-0.1397730337 0.2272392165 0.1501291911
-0.1314830536 0.2711496214 0.1564900687
-0.1432502664 0.1970069696 0.1474611205
-0.1255020942 -0.1449462743 0.1610792414
-0.1379348419 -0.0413465252 0.1515396303
-0.1320257147 0.2690168194 0.1560736864
-0.1155711277 0.2936601601 0.1686992430
-0.1389567653 -0.0300500282 0.1507555114
-0.1284277138 0.0435970798 0.1588344220
-0.1325458071 -0.0286833950 0.1556746210
-0.1255013790 -0.2232672541 0.1610797902
-0.1328215101 0.2179025575 0.1554630749
-0.1353945941 -0.4857498181 0.1534887550
-0.1416673585 0.3968159690 0.1486756812
-0.1324668391 0.0913258817 0.1557352129
-0.1383317337 -0.3453663941 0.1512350964
-0.1399101953 -0.5444152235 0.1500239474
-0.1284553672 0.0282211177 0.1588132036
-0.1357010708 -0.0076913500 0.1532535964
-0.1244851663 0.1316943182 0.1618595272
-0.1310894065 -0.0750073952 0.1567921129
-0.1256907822 0.1430093644 0.1609344616
-0.1260777434 0.3580800370 0.1606375474
-0.1138574322 0.2989083188 0.1700141566
-0.1313044460 -0.1263735562 0.1566271138
-0.1280704818 0.1155119646 0.1591085251
-0.1276242008 -0.1293202954 0.1594509552
-0.1407839403 -0.4976716789 0.1493535254
-0.1444409968 -0.5517107023 0.1465474766
-0.1189783375 0.0613462916 0.1660849009
-0.1143668228 0.3403786770 0.1696233027
-0.1307653427 0.1997748576 0.1570407662
-0.1454495304 -0.2189099222 0.1457736317
-0.1129097958 0.2741820273 0.1707412753
-0.1221511507 -0.0885813567 0.1636504106
-0.1430007012 -0.0962547897 0.1476526112
-0.1443710401 -0.4071089259 0.1466011541
-0.1442309935 -0.4492308449 0.1467086115
-0.1279931890 0.3227482330 0.1591678316
-0.1239449305 0.1844631813 0.1622740486
-0.1395270371 0.0494862045 0.1503179435
-0.1185965718 0.3806952576 0.1663778286
-0.1399108915 -0.3925543018 0.1500234132
-0.1308372122 -0.0768462013 0.1569856209
-0.1366961128 -0.3640285769 0.1524901035
-0.1298938165 0.1158795325 0.1577094856
-0.1284156037 -0.0069377514 0.1588437140
-0.1419371083 0.1503968783 0.1484687029
-0.1153766253 0.1875133513 0.1688484842
-0.1310660414 -0.0522231353 0.1568100409
-0.1345921337 -0.2178717336 0.1541044806
-0.1404723917 -0.5987687230 0.1495925757
-0.1348459699 0.0349363243 0.1539097128
-0.1221332917 0.2891072460 0.1636641137
-0.1356076226 0.2243165525 0.1533252989
-0.1330790872 -0.1325511617 0.1552654368
-0.1427547768 -0.5001376904 0.1478413083
-0.1443114688 0.2331910328 0.1466468630
-0.1216088899 -0.0813969368 0.1640664857
-0.1173653580 0.3982434450 0.1673225354
-0.1301756469 0.3446197854 0.1574932380
-0.1364193787 -0.3321543524 0.1527024408
-0.1252450539 0.2394038010 0.1612764677
-0.1448419160 0.0215593691 0.1462398525
-0.1278002695 -0.0816980880 0.1593158582
-0.1188186524 0.0200063142 0.1662074268
-0.1106313059 0.3730803627 0.1724895539
-0.1418396244 -0.4793267588 0.1485435021
-0.1388738204 0.3028896677 0.1508191548
-0.1088608002 0.3194191933 0.1738480578
-0.1347849181 -0.2940233061 0.1539565577
-0.1385764119 0.1852762506 0.1510473555
-0.1415429576 -0.5979906112 0.1487711336
-0.1155632305 0.1318132718 0.1687053026
-0.1397747434 0.0641263267 0.1501278792
-0.1277026983 0.3697138510 0.1593907243
-0.1263479889 -0.2102822936 0.1604301888
-0.1359291167 -0.4669946846 0.1530786174
-0.1303654447 0.1941326484 0.1573476067
-0.1454997667 -0.5650485867 0.1457350855
-0.1354840789 -0.3464809437 0.1534200936
-0.1409890547 0.2242912639 0.1491961417
-0.1415923593 -0.2830123265 0.1487332278
-0.1431431308 -0.2099609181 0.1475433254
-0.1202528503 0.3860116321 0.1651069709
-0.1364672712 -0.3647022859 0.1526656930
-0.1297907147 -0.2558738322 0.1577885953
-0.1312952696 0.2284946308 0.1566341548
-0.1439459574 0.3769623235 0.1469273189
-0.1393617513 -0.0859849012 0.1504447668
-0.1432962707 -0.1450503732 0.1474258216
-0.1442927898 -0.6029843889 0.1466611954
-0.1153919326 0.2754148531 0.1688367389
-0.1336447990 0.3854840857 0.1548313677
-0.1310508257 -0.2745673026 0.1568217158
-0.1164642025 0.1126520665 0.1680139893
-0.1246888216 0.2565587926 0.1617032631
-0.1183845580 0.0510580527 0.1665405062
-0.1404983195 -0.0178476651 0.1495726814
-0.1342980513 0.2985128164 0.1543301291
-0.1437562410 -0.4215727292 0.1470728878
-0.1236437460 -0.0547028766 0.1625051465
-0.1340137910 -0.4294768003 0.1545482412
-0.1079642984 0.3680033882 0.1745359411
-0.1420799569 0.1903819680 0.1483590956
-0.1386816218 0.0224860072 0.1509666283
-0.1130065441 0.1773501341 0.1706670406
-0.1441190699 -0.6563157602 0.1467944902
-0.1410563025 -0.5350674441 0.1491445427
-0.1402134785 -0.0004181390 0.1497912391
-0.1437185059 -0.0945705933 0.1471018417
-0.1315774508 0.2832227647 0.1564176380
-0.1290663992 -0.2658409666 0.1583443606
-0.1443966194 -0.4729382440 0.1465815273
-0.1228628044 -0.1229048625 0.1631043608
-0.1251448573 -0.1100165804 0.1613533483
-0.1135881371 0.2820136905 0.1702207859
-0.1191316952 -0.0416554011 0.1659672300
-0.1451988377 0.2831133764 0.1459659875
-0.1241278493 0.3527811557 0.1621336955
-0.1115741601 0.2674631031 0.1717661046
-0.1308665058 0.2493198992 0.1569631440
-0.1197646244 0.2149916399 0.1654815852
-0.1201179037 0.3816740854 0.1652105151
-0.1420901682 -0.0174591435 0.1483512606
-0.1159021423 0.4004647437 0.1684452565
-0.1398909144 -0.2249191165 0.1500387416
-0.1162313976 0.1226329706 0.1681926199
-0.1368386182 -0.4952912477 0.1523807595
-0.1198652602 -0.0290424958 0.1654043677
-0.1210440842 0.1532288241 0.1644998595
-0.1381347982 -0.4674909493 0.1513862044
-0.1211046585 0.3300072558 0.1644533810
-0.1092259731 0.3615266676 0.1735678617
-0.1175635460 -0.0053556102 0.1671704663
-0.1340653351 -0.3936620650 0.1545086916
-0.1429373846 -0.1549532645 0.1477011939
-0.1268710585 0.0080490109 0.1600288391
-0.1383351600 -0.0684471967 0.1512324673
-0.1431191441 -0.4315150496 0.1475617304
-0.1409068936 -0.4249169580 0.1492591837
-0.1440621544 -0.1419779928 0.1468381613
-0.1437104905 -0.5181031801 0.1471079919
-0.1331003495 -0.1000630814 0.1552491223
-0.1236509860 0.3718215421 0.1624995913
-0.1422550912 -0.5318952163 0.1482247156
-0.1403401796 -0.3341017195 0.1496940217
-0.1579307519 0.4110987697 0.1292935613
-0.1719042439 0.4152205142 0.1106306203
-0.1815444937 0.4385855640 0.0845421765
-0.1819463021 0.4428074218 0.0806212493
-0.1801693697 0.4510344280 0.0783689636
-0.1564784847 0.4585215634 0.1142645951
-0.0027800918 0.4644102563 0.1925852259
-0.0743908450 0.4630676883 0.1768247230
-0.1040086022 0.4630644682 0.1619419520
-0.1463069685 0.4615335917 0.1254025799
0.0446705670 0.4659650234 0.1863554666
0.0810575449 0.4727264677 0.1690717934
-0.1789038260 0.4199986995 0.0992830162
0.1305137232 0.4771339870 0.1328099300
0.1436755138 0.4760405774 0.1174263593
0.1788506716 0.4689609214 0.0627456091
0.1948279252 0.4590770636 0.0044480516
0.1918616380 0.4524707363 -0.0461600436
0.1524234534 0.4427745975 -0.1285915310
0.1214613274 0.4353937078 -0.1601361058
0.1352529637 0.4318294003 -0.1505257325
0.1140572405 0.4214490827 -0.1687608940
0.1147564470 0.4146913070 -0.1690199953
0.1218465913 0.4088826587 -0.1639464651
0.1097695553 -0.0502685071 -0.1733406743
0.1392345966 -0.7647845605 -0.1507322340
0.1147985606 -0.6487729837 -0.1694819332
0.1208692669 -0.4135137797 -0.1648238979
0.1175811343 -0.3894258587 -0.1673468725
0.1231967281 -0.4456315160 -0.1630380437
0.1230282410 -0.6278646670 -0.1631673234
0.1334791200 -0.4992337815 -0.1551483944
0.1045421164 0.1404566850 -0.1773516730
0.1163965311 -0.0508177557 -0.1682558151
0.1032343545 -0.0154445645 -0.1783551149
0.1289542162 -0.3634165126 -0.1586203399
0.1203260266 -0.5002888772 -0.1652407247
0.1196398815 -0.5443411751 -0.1657672018
0.1108495100 -0.7127633424 -0.1725120283
0.1253389388 -0.7149368024 -0.1613943317
0.1039877820 -0.2635714418 -0.1777770122
0.1051843340 -0.1532820790 -0.1768589013
0.1142295406 -0.0156426410 -0.1699185406
0.1108351910 -0.5067986379 -0.1725230152
0.1401629164 -0.7020028042 -0.1500199369
0.1072034701 0.0688545929 -0.1753096240
0.1151346915 0.0489981838 -0.1692240209
0.1257870437 -0.3632762517 -0.1610505021
0.1045164826 -0.2974505225 -0.1773713417
0.1088540383 -0.1513374916 -0.1740431478
0.1233922171 -0.5088150392 -0.1628880456
0.1233868166 -0.4706795151 -0.1628921894
0.1079062121 0.2254474636 -0.1747704121
0.1191545365 -0.7022610769 -0.1661396056
0.1033733020 0.1253770810 -0.1782485009
0.1045241964 -0.3779182295 -0.1773654229
0.1032818205 0.3669989734 -0.1783186943
0.1062692180 -0.5414260004 -0.1760264730
0.1240815630 -0.3254978493 -0.1623591125
0.1033452084 0.0792306907 -0.1782700570
0.1268508741 -0.4348457913 -0.1602342281
0.1238569212 -0.1896285494 -0.1625314795
0.1344919033 -0.5467391349 -0.1543712887
0.1252038629 -0.7102193090 -0.1614979750
0.1303228817 -0.7075577643 -0.1575701669
0.1038443892 0.2692197535 -0.1778870370
0.1157160381 -0.4830591179 -0.1687779554
0.1326636920 -0.4356318233 -0.1557740699
0.1153309880 -0.7682656939 -0.1690734032
0.1381547011 -0.7436102953 -0.1515608347
0.1236865433 -0.3842497897 -0.1626622100
0.1075079893 -0.5545028721 -0.1750759673
0.1071707050 0.2712828009 -0.1753347645
0.1403740676 -0.7788021233 -0.1498579212
0.1100865258 -0.5795928008 -0.1730974638
0.1165857234 -0.6605653427 -0.1681106484
0.1214940336 -0.7486553954 -0.1643445163
0.1121721254 0.1366765738 -0.1714971893
0.1050754053 -0.1306785886 -0.1769424820
0.1155660947 -0.3792573844 -0.1688930066
0.1142201090 -0.4956266311 -0.1699257774
0.1182127912 -0.6823527281 -0.1668622040
0.1046074452 0.2197953919 -0.1773015464
0.1164334928 -0.1179155135 -0.1682274545
0.1308951841 -0.7240929656 -0.1571310409
0.1147282013 -0.5773212476 -0.1695359197
0.1127481623 -0.7766385720 -0.1710551978
0.1072988432 -0.1713791854 -0.1752364445
0.1355943351 -0.5321496630 -0.1535253960
0.1237173907 -0.5535851014 -0.1626385408
0.1068266167 -0.7351594326 -0.1755987826
0.1250648675 -0.5858456846 -0.1616046258
0.1209153133 -0.2190411672 -0.1647885666
0.1113208448 -0.5710115669 -0.1721503744
0.1101795374 -0.6237340117 -0.1730260962
0.1360485284 -0.6514844879 -0.1531768948
0.1094582529 -0.0181589631 -0.1735795357
0.1139074633 -0.7014196468 -0.1701656696
0.1049824054 -0.7164060677 -0.1770138405
0.1190239040 -0.3082443461 -0.1662398395
0.1223015120 -0.2161402996 -0.1637249405
0.1037361683 -0.7196923765 -0.1779700746
0.1334707088 -0.6457176188 -0.1551548483
0.1151709914 0.0128262939 -0.1691961681
0.1282344049 -0.6763336392 -0.1591726490
0.1118131573 -0.2591972293 -0.1717726245
0.1142467976 -0.3358149559 -0.1699052994
0.1295403841 -0.6232841910 -0.1581705750
0.1322157256 -0.5577309561 -0.1561177932
0.1129325718 -0.6202147666 -0.1709137010
0.1101203022 -0.7547489208 -0.1730715472
0.1182332580 -0.7555439992 -0.1668464999
0.1042589828 0.1317434490 -0.1775689205
0.1034461904 -0.2956614328 -0.1781925738
0.1267712998 -0.5468251130 -0.1602952853
0.1081330528 -0.0844064258 -0.1745963579
0.1089193466 0.0143126196 -0.1739930370
0.1234031618 -0.2337588919 -0.1628796478
0.1135866000 -0.3903433673 -0.1704118670
0.1093755294 -0.1546614997 -0.1736430092
0.1203982850 -0.3119570573 -0.1651852810
0.1044192833 -0.5892525253 -0.1774459224
0.1316645375 -0.7453378253 -0.1565407182
0.1053490901 -0.6756551553 -0.1767324844
0.1033140743 0.3537163696 -0.1782939461
0.1096459087 -0.7231003288 -0.1734355480
0.1052323003 0.3368711743 -0.1768220968
0.1222907331 -0.2754834267 -0.1637332110
0.1407569507 -0.7590565512 -0.1495641361
0.1300088397 -0.6480478020 -0.1578111303
0.1145114114 0.0739221334 -0.1697022619
0.1373023140 -0.6231773497 -0.1522148688
0.1335051892 -0.4799771409 -0.1551283916
0.1243980276 -0.7405724913 -0.1621162901
0.1167402489 -0.5131300606 -0.1679920814
0.1086806621 -0.1443181763 -0.1741761789
0.1076739383 0.1231045127 -0.1749486352
0.1058675518 -0.7552363694 -0.1763346703
0.1431062445 -0.7713161014 -0.1477615298
0.1158771639 -0.4649391973 -0.1686543240
0.1204978788 -0.6800034143 -0.1651088629
0.1165480427 -0.0956576070 -0.1681395607
0.1081344631 -0.6245722679 -0.1745952758
0.1240716153 -0.3452354190 -0.1623667453
0.1164816492 -0.1644256401 -0.1681905042
0.1265385978 -0.3865918934 -0.1604738368
0.1184965284 -0.0927994769 -0.1666444933
0.1393940590 -0.6538309138 -0.1506098789
0.1133339822 -0.4088699661 -0.1706057000
0.1128856759 -0.7385405402 -0.1709496840
0.1136900607 -0.3840934245 -0.1703324819
0.1093935676 -0.2411156831 -0.1736291686
0.1045545516 -0.4015967066 -0.1773421315
0.1067108236 -0.5776999063 -0.1756876303
0.1185720389 -0.7863715965 -0.1665865543
0.1119782679 -0.4683760398 -0.1716459356
0.1189368511 -0.4862049843 -0.1663066350
0.1080147189 -0.3060954457 -0.1746871552
0.1082788911 -0.1220431924 -0.1744844566
0.1085495623 -0.2348217509 -0.1742767714
0.1297596704 -0.7383784444 -0.1580023172
0.1160687012 -0.7791699446 -0.1685073580
0.1290740703 -0.7594056531 -0.1585283762
0.1394150486 -0.6573623359 -0.1505937737
0.1170802630 -0.6160574184 -0.1677311896
0.1032754960 -0.7081048373 -0.1783235471
0.1290105701 -0.3454741968 -0.1585770997
0.1177249745 -0.5954443311 -0.1672365043
0.1147689702 -0.7758909263 -0.1695046378
0.1170644278 -0.1449284047 -0.1677433399
0.1210782015 -0.6176642158 -0.1646635830
0.1298706700 -0.4498998323 -0.1579171475
0.1136813796 -0.7491522354 -0.1703391430
0.1167416173 -0.4739054726 -0.1679910314
0.1136161720 -0.1654530324 -0.1703891766
0.1444445790 -0.7682233426 -0.1467346296
0.1061592539 0.0624741051 -0.1761108481
0.1138641143 -0.7349829330 -0.1701989311
0.1084673024 -0.0190560782 -0.1743398892
0.1110874231 -0.7440956523 -0.1723294782
0.1078074736 -0.5780011805 -0.1748461739
0.1143654328 0.0365813112 -0.1698142709
0.1045840761 0.0139991557 -0.1773194774
0.1069962795 -0.3422244263 -0.1754686007
-0.1620213901 -0.0150754678 0.1242155307
-0.1676053811 0.1595458002 0.1169380484
-0.1499640891 0.3628160646 0.1399295237
-0.1519712368 -0.3317577547 0.1373136559
-0.1708402632 0.3225494181 0.1127221036
-0.1541818619 0.1448449856 0.1344326008
-0.1537680929 0.1477781276 0.1349718561
-0.1555976526 0.1907190800 0.1325874346
-0.1760893122 0.3822011000 0.1058811433
-0.1622818776 0.3087223808 0.1238760436
-0.1511847784 -0.2630688516 0.1383386283
-0.1552250415 0.0694399195 0.1330730498
-0.1487544139 0.0977492757 0.1415060645
-0.1487273521 0.3789681964 0.1415413335
-0.1500706300 0.2214512059 0.1397906714
-0.1455495088 -0.1751876215 0.1456829408
-0.1531958872 0.2951652992 0.1357175983
-0.1601915997 0.1303438558 0.1266002529
-0.1706417485 0.2125495188 0.1129808232
-0.1477841897 -0.5530052488 0.1427705345
-0.1588865385 -0.1118648291 0.1283011081
-0.1466256030 0.0098355990 0.1442804930
-0.1556113246 -0.1929101767 0.1325696162
-0.1558031581 -0.3425886005 0.1323196043
-0.1499316065 -0.6054789072 0.1399718575
-0.1472772336 0.3467477288 0.1434312383
-0.1649830241 -0.0250543741 0.1203557038
-0.1508356008 -0.2661211505 0.1387937032
-0.1478923118 -0.5088188098 0.1426296216
-0.1487844074 -0.1279294139 0.1414669746
-0.1466873196 -0.5756935550 0.1442000591
-0.1730332449 0.3071221833 0.1098640429
-0.1705807493 0.2928405469 0.1130603219
-0.1582686328 0.3654979808 0.1291064099
-0.1715549061 0.1645218017 0.1117907266
-0.1475356775 -0.0895766742 0.1430944146
-0.1514418047 -0.5567328590 0.1380036522
-0.1589595064 0.2351016777 0.1282060108
-0.1535527194 -0.4386173124 0.1352525474
-0.1503859627 -0.4228982286 0.1393797058
-0.1630471414 0.2153760602 0.1228786935
-0.1559033761 0.0927678775 0.1321889925
-0.1507568710 0.1612909559 0.1388963099
-0.1590623852 -0.1113032217 0.1280719312
-0.1697213786 0.1245479414 0.1141803192
-0.1597629571 0.1899029857 0.1271588926
-0.1597027229 0.0709237712 0.1272373943
-0.1506166506 -0.3556546733 0.1390790559
-0.1597568957 0.1760185590 0.1271667923
-0.1461312787 -0.7240810039 0.1449247341
-0.1641186003 0.2273358554 0.1214822867
-0.1654793801 0.1587580535 0.1197088148
-0.1587482394 -0.1707714024 0.1284813500
-0.1520290899 -0.5076572684 0.1372382573
-0.1523900009 0.3579908052 0.1367678907
-0.1686527945 0.2168289486 0.1155729794
-0.1650132583 -0.0355454564 0.1203163002
-0.1511622386 -0.4155196019 0.1383680039
-0.1498228147 -0.3511737469 0.1401136432
-0.1694600658 0.3847540644 0.1145208821
-0.1631710370 -0.0317218835 0.1227172233
-0.1591981497 -0.2419805509 0.1278949926
-0.1464903534 -0.3943641130 0.1444567605
-0.1522525077 -0.2629635628 0.1369470823
-0.1616382281 0.0759031260 0.1247148967
-0.1610722110 0.2624334859 0.1254525732
-0.1732912662 0.3046481588 0.1095277699
-0.1604662509 0.2259506916 0.1262423066
-0.1743502345 0.3518914656 0.1081476418
-0.1613262884 0.1997287108 0.1251214402
-0.1710708482 0.2429823420 0.1124215877
-0.1647264121 0.0762100830 0.1206901401
-0.1459761459 -0.4442150156 0.1451269150
-0.1713188238 0.2453473899 0.1120984070
-0.1495101659 0.2648898883 0.1405211110
-0.1492233536 -0.1079574315 0.1408949066
-0.1644939981 0.0157027538 0.1209930396
-0.1621126448 -0.0781746234 0.1240966006
-0.1541170648 -0.0468214858 0.1345170494
-0.1534949089 0.3823231494 0.1353278904
-0.1464830167 -0.4723014662 0.1444663222
-0.1608614498 0.0067130539 0.1257272533
-0.1630225323 0.1962946310 0.1229107659
-0.1675495679 0.3512657125 0.1170107884
-0.1567782221 -0.3499002503 0.1310488266
-0.1462829740 -0.6663107536 0.1447270332
-0.1653770253 0.1188660729 0.1198422113
-0.1554103379 -0.3381266703 0.1328315574
-0.1731412619 0.3675594226 0.1097232669
-0.1662436736 0.1776368620 0.1187127294
-0.1610122202 0.1566159542 0.1255307577
-0.1547359338 -0.1646859199 0.1337104922
-0.1508796878 -0.2252913561 0.1387362457
-0.1514436041 0.2501965237 0.1380013070
-0.1557106884 -0.1039429322 0.1324401177
-0.1581375466 0.0096102302 0.1292772514
-0.1547874674 0.0727901680 0.1336433296
-0.1655053680 -0.0133010887 0.1196749453
-0.1480752207 -0.1708353674 0.1423912408
-0.1636400943 0.3357318711 0.1221059121
-0.1537834856 -0.0939136130 0.1349517953
-0.1482951021 0.2513140316 0.1421046746
-0.1528687188 -0.0754099484 0.1361439890
-0.1645887118 0.1601449180 0.1208696015
-0.1695753395 0.0909285167 0.1143706486
-0.1628125538 0.0533706418 0.1231844260
-0.1528503212 0.3349627943 0.1361679661
-0.1459509642 -0.1891523502 0.1451597336
-0.1500981034 0.3578845294 0.1397548660
-0.1468510664 -0.2636740381 0.1439866519
-0.1475601201 0.1964813215 0.1430625591
-0.1574840187 -0.0926432774 0.1301289787
-0.1474477832 -0.1374255284 0.1432089651
-0.1501075601 0.1867467071 0.1397425413
-0.1468527238 -0.2627851772 0.1439844919
-0.1629168456 0.3217514097 0.1230485049
-0.1626885313 -0.0441137181 0.1233460615
-0.1485404375 0.0640854719 0.1417849348
-0.1624761684 0.1165701276 0.1236228290
-0.1496776139 -0.1434761970 0.1403028799
-0.1545375569 0.2879566041 0.1339690321
-0.1506482395 0.3806772267 0.1390378867
-0.1560732125 0.0663499753 0.1319676488
-0.1502591161 -0.5537189876 0.1395450220
-0.1544371502 0.2896121712 0.1340998898
-0.1563974172 -0.0080270944 0.1315451205
-0.1648921650 0.1775350633 0.1204741182
-0.1726792913 0.3136868712 0.1103253422
-0.1457680738 -0.1263046727 0.1453980903
-0.1479274707 -0.6671861363 0.1425837998
-0.1534317468 0.2467034326 0.1354102080
-0.1503199940 -0.5381226866 0.1394656812
-0.1575334575 0.2413616981 0.1300645462
-0.1630438931 0.1379063751 0.1228829269
-0.1673745980 0.3842779873 0.1172388225
-0.1524993092 -0.5310949692 0.1366254317
-0.1491255631 -0.2740648507 0.1410223546
-0.1542416297 0.1898426186 0.1343547069
-0.1528796722 0.2440077114 0.1361297137
-0.1654031583 0.3212697235 0.1198081529
-0.1671825551 0.1432571867 0.1174891074
-0.1462908447 -0.0663052036 0.1447167755
-0.1617435623 -0.0229090803 0.1245776171
-0.1545154946 -0.0252474878 0.1339977854
-0.1536590029 -0.3763102303 0.1351140306
-0.1518847757 -0.3054199126 0.1374263386
-0.1758321480 0.3378774778 0.1062162992
-0.1628994530 0.2863153886 0.1230711723
-0.1555741239 0.0192192797 0.1326180991
-0.1516079124 -0.0561816466 0.1377871680
-0.1495174576 -0.5201932762 0.1405116078
-0.1463769630 -0.1459386515 0.1446045396
-0.1561383160 -0.0697035222 0.1318828010
-0.1562311011 0.2253853778 0.1317618763
-0.1661796846 0.0611691841 0.1187961247
-0.1675318253 0.1840404472 0.1170339118
-0.1497118479 -0.3521724074 0.1402582636
-0.1484650763 -0.2156210167 0.1418831512
-0.1545485289 -0.2248178887 0.1339547325
-0.1624858918 -0.0307084119 0.1236101567
-0.1577927886 -0.0933456412 0.1297265662
-0.1699164466 0.4095961258 0.1137316657
-0.1836497501 0.4168137211 0.0886268314
-0.1841254555 0.4415805343 0.0762188934
-0.1905001783 0.4514930602 0.0530443882
-0.1837212135 0.4550393504 0.0659957313
-0.1838861877 0.4587767127 0.0618711826
-0.1738550823 0.4610601859 0.0835317713
-0.0249260483 0.4644787218 0.1896398786
-0.0638438569 0.4645468140 0.1805028526
-0.1502358322 0.4652077694 0.1176293899
0.0371987022 0.4700560482 0.1853349638
-0.1933242657 0.4296826515 0.0608695192
0.0506623503 0.4725884564 0.1817428925
-0.1912672326 0.4220564394 0.0687910682
0.1076847496 0.4810048419 0.1473486502
0.1314155937 0.4801634429 0.1293332697
0.1874933377 0.4650102568 0.0404570140
0.1920713840 0.4612950757 -0.0180498583
0.1870284802 0.4572015414 -0.0566340511
0.1480129154 0.4464605912 -0.1326131357
0.1398756870 0.4431586408 -0.1435898503
0.0736737210 0.4331088133 -0.1875217605
0.0605804875 0.4256513360 -0.1943645890
0.0952357511 0.4189555996 -0.1809030611
0.0804694345 0.4071127822 -0.1877405945
0.0997122947 0.1240712808 -0.1798338590
0.0725711302 0.2366111952 -0.1910759599
0.0928799127 0.0056897129 -0.1826638896
0.0775252032 0.0282748770 -0.1890239408
0.0785875217 0.1769829164 -0.1885839194
0.0856561383 0.3595372165 -0.1856560384
0.0948454340 -0.0752571430 -0.1818497540
0.0835877742 0.3663707969 -0.1865127723
0.0743177323 0.0617326091 -0.1903525025
0.0695932162 0.0904906179 -0.1923094372
0.0717679629 0.0642143810 -0.1914086386
0.0805068539 0.1399541469 -0.1877889157
0.0585128643 0.3627617159 -0.1968990131
0.0926375859 0.3928991139 -0.1827642634
0.1011549182 -0.4615444324 -0.1792363120
0.0738654750 0.3199199882 -0.1905398313
0.0782267885 0.1151088753 -0.1887333382
0.0858186433 0.2069801054 -0.1855887274
0.0962982216 -0.4386679403 -0.1812479970
0.0987482652 0.0316088323 -0.1802331681
0.0737345217 0.1447445875 -0.1905940733
0.0855404322 0.0272346368 -0.1857039648
0.0804262267 0.3562988897 -0.1878223122
0.1017396055 -0.6174757748 -0.1789941296
0.1003551145 0.1808725143 -0.1795675975
0.0944988072 -0.0608808725 -0.1819933298
0.0975161300 0.1876357121 -0.1807435290
0.0966032040 -0.4690812759 -0.1811216707
0.0969197075 -0.2865728021 -0.1809905723
0.1017543749 0.3061586961 -0.1789880120
0.0904153750 -0.2575664464 -0.1836847221
0.0909784317 -0.2588206151 -0.1834514992
0.0742609016 0.0992054290 -0.1903760422
0.0728990643 0.0576151388 -0.1909401268
0.0894104163 -0.0418045067 -0.1841009845
0.1012554506 -0.3654909899 -0.1791946707
0.0954700655 0.0937420399 -0.1815910263
0.0951907415 0.1844792899 -0.1817067247
0.0990011001 0.3444193669 -0.1801284418
0.1024275303 -0.7202193736 -0.1787091853
0.0945287178 0.0222889218 -0.1819809405
0.0695931622 0.0653873578 -0.1923094595
0.0748585604 0.1601728978 -0.1901284869
0.0921446270 0.0621642351 -0.1829684512
0.0880551882 -0.0525718118 -0.1846623315
0.0626742652 0.3010545636 -0.1951753255
0.0987898501 0.2405123526 -0.1802159433
0.0897170803 -0.0985032270 -0.1839739617
0.0751442069 0.3776354955 -0.1900101697
0.0986422771 -0.0720903750 -0.1802770693
0.0725491861 0.3680195436 -0.1910850493
0.0685329334 0.1198150548 -0.1927486153
0.0951987008 -0.3069809838 -0.1817034279
0.1029837254 0.3212363496 -0.1784788045
0.0616915080 0.2259623543 -0.1955823919
0.0869782377 0.0345876461 -0.1851084136
0.0937156645 0.3210804634 -0.1823177141
0.0859074485 -0.1866979495 -0.1855519436
0.0587497627 0.3926818042 -0.1968008878
0.0932878726 0.3756860148 -0.1824949092
0.0813695586 0.0943557250 -0.1874315761
0.0826330193 -0.1737717331 -0.1869082399
0.1017935230 -0.7167675487 -0.1789717965
0.0771049273 0.1917730368 -0.1891980226
0.0854800549 -0.0314489639 -0.1857289736
0.1010514057 0.0930015250 -0.1792791878
0.0847947834 0.0252884502 -0.1860128189
0.0900637238 0.2836095211 -0.1838303790
0.0859950641 -0.1128448801 -0.1855156524
0.0857804199 0.3127074173 -0.1856045599
0.0982451218 0.1563659764 -0.1804415744
0.1016335649 -0.0540875712 -0.1790380525
0.0918938208 -0.3814370943 -0.1830723373
0.0788793826 -0.0902370335 -0.1884630281
0.0883018787 -0.3391913887 -0.1845601502
0.0874079809 -0.1042348027 -0.1849304103
0.0691399499 0.1366538079 -0.1924971839
0.0916350246 -0.0022490401 -0.1831795328
0.0793289848 -0.0549583208 -0.1882767991
0.0657262848 0.2151733154 -0.1939111530
0.0957065695 -0.4393177979 -0.1814930644
0.0937219304 0.1217568917 -0.1823151187
0.0917127489 -0.4013407864 -0.1831473388
0.0946224468 -0.2537773945 -0.1819421172
0.0624629850 0.3409716619 -0.1952628395
0.0883992029 0.3737487869 -0.1845198377
0.0875449443 -0.1056962380 -0.1848736789
0.0691527967 0.3734623338 -0.1924918627
0.0919674143 -0.4643156893 -0.1830418542
0.0871192395 0.0261172066 -0.1850500094
0.0976156218 -0.6191709439 -0.1807023187
0.0852490280 0.0613631011 -0.1858246669
0.0988383611 -0.2973368926 -0.1801958496
0.0925940538 -0.2563789074 -0.1827822948
0.0791673064 0.2778754915 -0.1883437677
0.0934980873 -0.0318331886 -0.1824078365
0.0907379851 0.2875610421 -0.1835510942
0.0907175040 -0.0461974162 -0.1835595777
0.0952701870 -0.0544926669 -0.1816738177
0.0798881950 -0.0885384272 -0.1880451695
0.0900539234 -0.2188187823 -0.1838344384
0.1006156757 -0.2774928663 -0.1794596709
0.0908675374 -0.3848740225 -0.1834974326
0.0920815558 0.1174199132 -0.1829945758
0.0845722053 0.2499469804 -0.1861050126
0.1007326282 -0.5505205302 -0.1794112281
0.0876647942 -0.1441526125 -0.1848240360
0.0888570601 -0.0519270896 -0.1843301894
0.0849126452 0.1795820319 -0.1859639995
0.0939235018 -0.4075376490 -0.1822316261
0.1009580139 0.0765100559 -0.1793178715
0.0980061575 -0.1707162623 -0.1805405555
0.0906915473 0.3379167206 -0.1835703292
0.0976528827 0.1759624314 -0.1806868849
0.0805312523 0.1607142545 -0.1877788097
0.0816920437 -0.2253226683 -0.1872980000
0.0969868027 0.1986894704 -0.1809627809
0.0680361059 0.3764150987 -0.1929544055
0.1001964783 -0.1374266426 -0.1796333060
0.0642979811 0.2017408918 -0.1945027685
0.0800201139 0.0466372280 -0.1879905276
0.0871577424 -0.2041845873 -0.1850340612
0.1018218812 -0.6659423383 -0.1789600503
0.0646337477 0.2630751150 -0.1943636912
0.0761724727 0.0950121044 -0.1895842532
0.0978889679 0.1822416707 -0.1805890964
0.0910348058 -0.1293728035 -0.1834281486
0.0726901222 0.1114456687 -0.1910266724
0.0949966661 -0.4707340895 -0.1817871124
0.0979126951 -0.2309792264 -0.1805792684
0.0929041738 0.2672482446 -0.1826538404
0.0792877541 0.0406708707 -0.1882938772
0.0869762686 0.3463636952 -0.1851092292
0.0918397074 -0.0648946439 -0.1830947515
0.0699930603 0.2563085753 -0.1921438184
0.0953722474 -0.0530317655 -0.1816315434
0.0751830248 0.3234095889 -0.1899940910
0.0832094977 0.0285285791 -0.1866694577
0.1025188138 -0.0517956412 -0.1786713749
