-0.4054985354 -0.4045678056 0.1759049403
0.1486614144 0.1723553822 0.2156919264
-0.4453272791 -0.4413339820 0.1732215577
-0.2371205419 -0.2262322724 0.1881080052
0.1519606324 0.1473875836 0.2148636982
0.0506317998 0.0848830672 0.2092006063
0.0586964950 0.0720606170 0.2089839310
0.1709079806 0.2152377856 0.2180287419
-0.1330038694 -0.1392251547 0.1947812698
0.0231408291 0.0378867356 0.2065377303
-0.1913111753 -0.1846496772 0.1911679078
-0.0383363512 -0.0390819412 0.2016376217
-0.4157106238 -0.4080972377 0.1754380755
-0.2672707385 -0.2507856517 0.1861996388
0.2724443981 0.2537337865 0.2227983086
0.1095837848 0.1470915888 0.2134644896
-0.3333251262 -0.3290880161 0.1810995842
0.0154582298 0.0373848026 0.2062672542
0.2414725999 0.2492096295 0.2216141300
0.2693305578 0.2794421357 0.2236603799
-0.0716240751 -0.0816103617 0.1989524132
-0.4398476805 -0.4338468102 0.1736818198
-0.0807163673 -0.0831835561 0.1985955882
-0.2782542978 -0.2718692155 0.1850492194
-0.4118658513 -0.4027497405 0.1757645485
-0.0922273912 -0.1022946934 0.1975018575
0.0634619939 0.0710878199 0.2091035510
0.0222465550 0.0124671138 0.2055551954
0.2358456302 0.2734662776 0.2223394413
-0.0275007079 -0.0105963561 0.2030607735
0.2071195090 0.2344890424 0.2199368244
-0.1876216308 -0.1616696941 0.1921505184
-0.2148338712 -0.1980831355 0.1898936334
0.0313073204 0.0514051134 0.2073121767
-0.4072988367 -0.3964592336 0.1761500425
-0.1074047312 -0.0868768632 0.1975828762
0.0532211054 0.0865840471 0.2093492095
0.0293794449 0.0160058681 0.2059215466
0.0028777085 0.0180010767 0.2051282685
-0.2101658334 -0.2143631030 0.1894360385
0.0822007645 0.1164243808 0.2114174956
0.1122289315 0.1110125866 0.2121981637
0.2849322937 0.2638138844 0.2235853719
-0.2215263234 -0.2250270499 0.1886640103
-0.0808915715 -0.0704078266 0.1990689419
0.1524267054 0.1490093118 0.2149397803
-0.1948853239 -0.1863457957 0.1909872270
-0.0160962811 -0.0221812088 0.2029999056
0.0779059096 0.1141081135 0.2111899515
0.1379387804 0.1703557468 0.2152657058
0.1283231578 0.1433921377 0.2139395918
-0.0421850329 -0.0380774310 0.2015492225
0.0556574257 0.0748747372 0.2089899126
-0.1459858000 -0.1418914461 0.1942560432
0.2424458895 0.2360897407 0.2211540125
-0.0274985189 -0.0089203909 0.2031236942
-0.2596743831 -0.2410920877 0.1868119781
0.2463006757 0.2866087812 0.2231747570
0.2779593018 0.2714233720 0.2236423201
0.0397837609 0.0326288478 0.2068857191
-0.0724027854 -0.0631929301 0.1996175636
-0.2108066175 -0.1965146255 0.1900843708
0.0541795505 0.0799279302 0.2091309988
-0.1158852364 -0.1055196803 0.1966059762
0.1198731646 0.1099493128 0.2124086876
0.0479238229 0.0682183557 0.2084869724
-0.1462599248 -0.1404952878 0.1942994201
0.1254880033 0.1108980879 0.2126281882
0.0610281918 0.0736989467 0.2091217465
0.1461119825 0.1556928597 0.2149835680
-0.1499731686 -0.1339610762 0.1944228225
0.2725558026 0.2697137468 0.2234012101
0.2258644442 0.2606697230 0.2215326208
-0.2122544856 -0.1871444099 0.1903883293
-0.0596631138 -0.0489378108 0.2005694384
0.2590646240 0.2805696624 0.2233663883
-0.2907491335 -0.2943271738 0.1837977560
-0.0539267256 -0.0360041290 0.2012423574
-0.1363077609 -0.1373380762 0.1947438124
-0.1317116543 -0.1083138510 0.1959827792
-0.1085686798 -0.1108638125 0.1966452332
0.0299229169 0.0682522406 0.2078986000
-0.0415728603 -0.0398664792 0.2015021853
-0.0491718268 -0.0328098463 0.2015178967
0.2157373687 0.2160403287 0.2195272825
-0.1326744800 -0.1379991299 0.1948380356
-0.3115357832 -0.3038114055 0.1827612013
-0.4779593856 -0.4711973471 0.1710327673
-0.0893000389 -0.0747528402 0.1986305726
-0.0588757304 -0.0249987988 0.2014929487
0.2213853904 0.2158669649 0.2197057895
-0.0583366949 -0.0407709950 0.2009191445
0.2821770032 0.2693120182 0.2237013001
0.2710390325 0.2690570151 0.2233268986
0.1621774409 0.1489081101 0.2152553833
-0.0111430674 0.0028149923 0.2040995180
0.1097995734 0.1168405127 0.2123371356
-0.0136499285 -0.0170445692 0.2032726643
-0.1983453916 -0.1809331985 0.1910768617
0.1073968157 0.1248718608 0.2125596075
-0.0280325210 -0.0000323450 0.2034395061
0.1767411088 0.2141709941 0.2181798086
0.2363013573 0.2888287561 0.2229304658
-0.4177734064 -0.4145263728 0.1751294123
-0.2620192747 -0.2571298814 0.1861337472
0.1491130062 0.1408949028 0.2145269435
0.0014812159 0.0172847723 0.2050556630
0.1665104400 0.2038757385 0.2174586153
0.2132703602 0.1972003206 0.2187399676
0.0610222695 0.0753866030 0.2091848401
0.1080745030 0.1258460559 0.2126183387
-0.4698080274 -0.4636912527 0.1715812560
0.1342454999 0.1184837055 0.2131995139
0.1178907554 0.1232579085 0.2128428266
0.0174476638 0.0242706277 0.2058406360
0.2179808826 0.2562811722 0.2211098128
0.2581769444 0.2887357785 0.2236435425
-0.0129816638 0.0231971582 0.2048036284
0.0667502435 0.0573406757 0.2086957408
-0.2922857181 -0.2962436387 0.1836755553
-0.1532393962 -0.1335456595 0.1943314112
-0.3212559260 -0.3077297985 0.1822958648
-0.4488038284 -0.4400823931 0.1731546137
0.0200019601 0.0474570235 0.2067938006
0.1376899560 0.1746041252 0.2154168704
-0.1047915592 -0.0960745065 0.1973235602
0.1319417777 0.1674784768 0.2149613678
0.0963285807 0.1026666770 0.2113643535
-0.0040157555 -0.0136837368 0.2037142762
-0.4416866434 -0.4319642988 0.1736921768
0.1645869046 0.1994951569 0.2172313346
0.2599162393 0.2970604232 0.2240016619
0.2959797957 0.2741508585 0.2239154514
0.3412432337 0.2628221472 0.2108916689
0.3432538481 0.2673184502 0.2104539191
0.3466550770 0.2743299314 0.2093005906
0.3602556377 0.2829588646 0.2030994551
0.3543444820 0.2919482370 0.2048701979
0.3666095668 0.2898318039 0.1990381024
0.3690916830 0.2968125977 0.1963115349
0.4495901884 0.4344430669 0.1130648245
0.3804922418 0.3427197299 0.1778952381
0.3677987787 0.3170018187 0.1920693043
0.3801407939 0.3236203749 0.1829830584
0.3696885586 0.3064750637 0.1936249378
0.4200943812 0.3875237981 0.1427219168
0.4065587837 0.3771323847 0.1534868708
0.3939023169 0.3475744960 0.1686193430
0.3941137072 0.3576274182 0.1659255507
0.3879312866 0.3410267153 0.1738696105
0.3858850602 0.3689133934 0.1679747010
0.3643604578 0.3073057724 0.1966057498
0.3491718605 0.3213635184 0.2021179522
0.3680624398 0.3458992838 0.1845320467
0.4199627113 0.3760412025 0.1457330168
0.3829142888 0.3522695077 0.1740051606
0.3706135447 0.3267218130 0.1879004178
0.4283827596 0.4032045276 0.1337507556
0.3897390737 0.3345004027 0.1744528266
0.3623482978 0.3157797001 0.1956476643
0.4155674706 0.3721916082 0.1493499608
0.3773231238 0.3023176155 0.1901114594
0.3675611879 0.3236540038 0.1905129825
0.4458315816 0.4438288998 0.1129197423
0.4038212858 0.4038344763 0.1483078611
0.4341022583 0.4228016216 0.1253188133
0.4125780284 0.4084078437 0.1418926646
0.3934583411 0.3815394512 0.1602120068
0.4212153086 0.4245340623 0.1325981921
0.4168443937 0.4081535992 0.1394011907
0.3716960049 0.3611972798 0.1784478853
0.4155307444 0.4169287966 0.1379469489
0.4509879911 0.4490416045 0.1084985705
0.5138408125 0.6493582689 0.0135191398
0.5260068425 0.6626264445 0.0152720542
0.4261858589 0.5598773476 0.0168840344
0.4003851763 0.5293994747 0.0070463317
0.4518224941 0.5843812815 0.0115402488
0.4143717933 0.5456215313 0.0115944741
0.4644443266 0.6007554318 0.0201827902
0.4572032372 0.5923001753 0.0176794577
0.4195371122 0.5547818315 0.0215642702
0.4214249453 0.5552011830 0.0175478821
0.4076452289 0.5423960556 0.0213768801
0.4276139546 0.5578123836 0.0076147285
0.4407415382 0.5727018401 0.0110039629
0.4481258462 0.5793230345 0.0083220914
0.5334020462 0.6714420760 0.0183005810
0.5089436094 0.6509589830 0.0351887874
0.4558591195 0.5945095383 0.0335879433
0.4131796056 0.5491169608 0.0351548150
0.4406284736 0.5783048695 0.0363199308
0.4190916827 0.5554086854 0.0335131339
0.4319788898 0.5690955638 0.0403164952
0.4332515649 0.5704776353 0.0296620894
0.4248622326 0.5615271191 0.0403520638
0.5037577629 0.6454437438 0.0352813929
0.4584163425 0.5972424889 0.0285915468
0.4619076837 0.6009240914 0.0402558374
0.5490285154 0.6935912599 0.0339993946
0.4503982028 0.5886972203 0.0353743380
0.4176341103 0.5538744242 0.0276227710
0.4314851483 0.5685780451 0.0375019492
0.4156678638 0.5477114869 0.0541565241
0.4803188292 0.6184607158 0.0538215126
0.4064313279 0.5393190071 0.0499060381
0.4734939830 0.6117128076 0.0520508912
0.3998466374 0.5316083975 0.0512051599
0.4197391435 0.5511511553 0.0566805017
0.4258575115 0.5583273721 0.0554441483
0.3929195942 0.5262434687 0.0456892291
0.5596659725 0.7043034519 0.0558884223
0.5475041058 0.6919120064 0.0536520407
0.3906833688 0.5200929445 0.0549810255
0.5269954674 0.6681979591 0.0569430738
0.4441187215 0.5805344798 0.0497779557
0.3967695483 0.5280607118 0.0516730346
0.3930902164 0.5217268976 0.0574742458
0.4725438777 0.5906115796 0.0832064570
0.4272688457 0.5508816016 0.0702752269
0.3981653956 0.5222214959 0.0655415839
0.4658350013 0.5925112053 0.0723616926
0.5271335011 0.6506465592 0.0848880739
0.4212654139 0.5453592885 0.0688519731
0.5175746877 0.6419874343 0.0824686993
0.4588527830 0.5757587749 0.0825508094
0.4235567250 0.5386595110 0.0794940722
0.4007825792 0.5218962943 0.0692953754
0.4884598168 0.6095766679 0.0820209190
0.4642326867 0.5898323633 0.0733634433
0.4276258629 0.5486135493 0.0733370399
0.5505753434 0.6732361643 0.0892686029
0.4987065584 0.6223640283 0.0805954123
0.5807718532 0.7064088954 0.0902399650
0.4328880000 0.5403295884 0.0858004895
0.4342064548 0.5390404509 0.0876378906
0.5194071131 0.6269006623 0.0955937907
0.4643178147 0.5659886322 0.0931051985
0.4489611450 0.5532912790 0.0896398462
0.5132306275 0.6134653330 0.0995902269
0.4208854527 0.5189796120 0.0904869407
0.4364239683 0.5322063588 0.0937480122
0.4286654453 0.5244343158 0.0928755414
0.4598532327 0.5665201509 0.0893645998
0.4670174062 0.5702890811 0.0923757362
0.5566329564 0.6629846345 0.1005609664
0.4860856068 0.5961677380 0.0901337535
0.4071282047 0.5133697525 0.0836513389
0.5134720852 0.6171950416 0.0973600347
0.5196868081 0.6056086859 0.1054832775
0.4426842082 0.5244818175 0.0996227125
0.4603694120 0.5439267898 0.1006776890
0.4874014780 0.5650209147 0.1053803456
0.5868635296 0.6668195400 0.1140213882
0.5114616717 0.5913657198 0.1068548286
0.4541556761 0.5372270487 0.1002596386
0.5209384588 0.6066425920 0.1056805365
0.5070694741 0.5838779970 0.1075449780
0.5217864077 0.6043892349 0.1068720988
0.5045265277 0.5842232123 0.1062682361
0.5036407943 0.5916554997 0.1032046613
0.4633573525 0.5522259165 0.0990601672
0.4676200168 0.5401127694 0.1053315034
0.4416453306 0.5173779483 0.1016959457
0.4488076419 0.5016802890 0.1068162672
0.4692949349 0.5220276371 0.1085141831
0.4338096255 0.4942903646 0.1044761962
0.5415874521 0.5988779581 0.1137671496
0.4582564857 0.5016848420 0.1089703767
0.5058184920 0.5553830091 0.1119677504
0.4541736857 0.5050221937 0.1075514937
0.4468567816 0.4968827111 0.1070726345
0.4833141528 0.5340673867 0.1099513854
0.5679704591 0.6210050447 0.1165494206
0.4583040091 0.5186837869 0.1064965068
0.5698131619 0.6262797626 0.1161986456
0.4450214388 0.4879589246 0.1079584661
0.4620710401 0.5190104060 0.1073078234
0.5171195431 0.5651153470 0.1131223551
0.5465417972 0.5772669826 0.1147370204
0.5228454799 0.5575106851 0.1132200054
0.5410950316 0.5621910809 0.1139931617
0.4581943191 0.4848177699 0.1083762314
0.5748094304 0.5971411233 0.1164081465
0.5890917721 0.6201885991 0.1177403477
0.5646299291 0.5903721446 0.1158209060
0.5647989138 0.5880930692 0.1157409509
0.4972725764 0.5233295950 0.1111004627
0.5461232835 0.5758672541 0.1146708117
0.4446637028 0.4795330644 0.1077349319
0.6138453269 0.6429872108 0.1194061007
0.5798932070 0.6099226024 0.1170540546
0.4942137456 0.5271328181 0.1111429592
0.5203622036 0.5412832750 0.1125299947
0.5528761413 0.6862107500 0.0097835455
0.5912135797 0.7293442107 0.0154815654
0.4448320717 0.5723610930 0.0032035460
0.5555501354 0.6898130727 0.0109109144
0.4718691375 0.6027699546 0.0072090479
0.4152554933 0.5435075571 0.0042446731
0.5560471742 0.6887063954 0.0089369983
0.5478154432 0.6772489039 0.0050141533
0.5258190963 0.6591118671 0.0098714726
0.5622880990 0.6979323846 0.0125742231
0.5719614470 0.7019931019 0.0056251160
0.4969704784 0.6278179009 0.0070141297
0.5917006117 0.7192407948 0.0024608272
0.5150062601 0.6468463172 0.0081414261
0.5688068876 0.7041048503 0.0121149336
0.3176807673 0.2723979694 0.2185440657
0.3224279495 0.2571894648 0.2154545602
0.6201834677 0.7304473452 -0.0238210723
0.6240453434 0.7259927912 -0.0272558153
0.6582700196 0.7218537966 -0.0366845428
0.6508172071 0.7213505297 -0.0355830071
0.6578878778 0.7002528881 -0.0384670550
0.6554867105 0.7105136889 -0.0381613207
0.4678135100 0.4639050095 -0.0392655794
0.5589377941 0.5752029023 -0.0347532400
0.4669871489 0.4646500868 -0.0395629348
0.5339710842 0.5392155559 -0.0351865984
0.4657553598 0.4638267841 -0.0397234991
0.5078312667 0.5183663103 -0.0381001908
0.4946535090 0.5043238349 -0.0390527661
0.4887213006 0.4891603134 -0.0381891582
0.4989534041 0.5032926856 -0.0379214690
0.5305069106 0.5353230078 -0.0354076236
0.4695486001 0.4790186003 -0.0410790267
0.5079800434 0.5134470880 -0.0373472283
0.5473377620 0.5519434024 -0.0339987835
0.4945270816 0.4986754370 -0.0382559804
0.5580685522 0.5691563476 -0.0340676527
0.4180718876 0.3235679496 -0.1111770775
0.4031987489 0.3072828407 -0.1291087191
0.4521475251 0.4116181647 -0.0604916280
0.4002021261 0.3325692514 -0.1273151382
0.4091104908 0.3425413856 -0.1165335950
0.4064097982 0.3032935824 -0.1266577070
0.4116083792 0.3122221642 -0.1197775870
0.4249781751 0.3709894924 -0.0953071192
0.4085220774 0.3374895234 -0.1180771492
0.4202550899 0.3528851279 -0.1034490186
0.3990521016 0.3230333243 -0.1302680307
0.3974952818 0.3098614471 -0.1343151832
0.4320974605 0.3453157588 -0.0930578437
0.4065284815 0.3374519745 -0.1200747056
0.4141913157 0.2933945391 -0.1207618704
0.4177492949 0.3104462410 -0.1139824561
0.4248018437 0.3349572576 -0.1023023042
0.4248706209 0.3216533785 -0.1047514062
0.4154268431 0.3275528674 -0.1130637992
0.4080893516 0.2948740389 -0.1265742097
0.4076476424 0.3247247964 -0.1213659401
0.4161915228 0.3424153940 -0.1094875801
0.4065937054 0.3398861924 -0.1195489068
0.4633186938 0.4438440336 -0.0432393124
0.4286938741 0.2615652982 -0.1031968516
0.4528584624 0.2160894802 -0.0358166209
0.4560641717 0.2025362901 -0.0020315308
0.4506221310 0.1938913020 0.0512815005
0.4244388612 0.2094320120 0.1294496041
0.4126517522 0.2145401276 0.1485729925
0.3582855163 0.2515799363 0.2015518423
0.3774960928 0.2414781277 0.1881333932
0.3486560131 0.2513982956 0.2068331488
0.3460922464 0.2334842879 0.2024109726
0.3622630613 0.2051656847 0.1844127135
0.1236115635 -0.0272549268 0.1763829919
-0.2783540553 -0.4724697798 0.1394572469
-0.0193393705 -0.1669268622 0.1713489112
0.0838989888 -0.0893141430 0.1648913389
-0.1362045016 -0.3030552422 0.1577103951
0.1267926662 0.0016755163 0.1877012022
0.2449311596 0.1232583985 0.1945322768
0.1339274657 -0.0352992245 0.1688811279
-0.2987363627 -0.4880835148 0.1406060123
-0.1092948009 -0.2755577093 0.1591810066
0.1879747376 0.0403606112 0.1807017077
0.2436719929 0.1132859768 0.1906940825
0.0334313009 -0.1084117167 0.1762255036
0.1973237129 0.0721839175 0.1908772543
-0.0193077424 -0.1754250732 0.1676486195
0.1881337561 0.0655317122 0.1915634607
-0.1281328136 -0.3088571359 0.1520542315
0.2788551719 0.1177502091 0.1789521072
0.1808639597 0.0098938373 0.1702446415
-0.1544853954 -0.3352834881 0.1508318740
0.2233237355 0.0747102091 0.1818647054
0.0897522123 -0.0501514448 0.1796111432
-0.1528214079 -0.3384373465 0.1488162207
0.0868455938 -0.0587569226 0.1770067001
0.3449213384 0.2035931405 0.1905188920
0.2124107446 0.0981904149 0.1962974877
0.2860439419 0.1349950070 0.1836408684
-0.1938924630 -0.3826962672 0.1455775979
0.0551402796 -0.1177418877 0.1637359409
0.2846840688 0.1299465859 0.1819787126
-0.0861917983 -0.2619474753 0.1561049608
-0.2181471379 -0.4011676538 0.1469918084
0.2096518330 0.0441223208 0.1739060648
0.0708662706 -0.1065247921 0.1624895430
-0.0985655656 -0.2871153285 0.1499937504
0.0203941811 -0.1228801042 0.1750154867
-0.3003127573 -0.4978471015 0.1369817859
-0.3343756738 -0.5306720220 0.1359804246
-0.3584492201 -0.5622323050 0.1316439832
-0.1794956270 -0.3579117567 0.1507358724
0.1267191328 -0.0199211811 0.1783574072
0.1550854797 0.0324422799 0.1900528131
0.2999331328 0.1462178979 0.1831111392
0.2219806004 0.0605975032 0.1762623863
0.1790026057 0.0289641788 0.1792443563
0.0478987018 -0.1195580360 0.1657633299
0.3142905869 0.1983188074 0.2001393069
-0.0313061596 -0.1949476612 0.1638413648
-0.2037103534 -0.3812153451 0.1500375052
0.1172366857 -0.0130802339 0.1850129996
-0.1753338650 -0.3668205325 0.1452515973
-0.1915302950 -0.3722128412 0.1492087040
0.1705726516 0.0373892897 0.1861782206
0.1217296256 -0.0263662768 0.1775003455
0.3098977831 0.1969234181 0.2012416815
-0.0813153519 -0.2676570355 0.1517311875
-0.0138695373 -0.1892112291 0.1595514077
-0.0161376633 -0.1790128265 0.1648590943
-0.0993479990 -0.2607852341 0.1617245148
-0.2538258198 -0.4495195021 0.1398803934
0.0971251416 -0.0699138300 0.1681681819
0.2357288469 0.1012934231 0.1885779574
0.0840357707 -0.0534067039 0.1804210190
0.0193160170 -0.1498778905 0.1637183683
0.1084159434 -0.0494443027 0.1726615058
0.2955604742 0.1719796210 0.1959911367
0.2401059616 0.0817885721 0.1784115414
-0.0370784149 -0.1999338048 0.1639217840
0.3297954862 0.2174105157 0.2023962399
0.2329169337 0.1236963056 0.1993934858
0.1458089553 -0.0219838825 0.1700400668
0.3328984221 0.1786255177 0.1843581642
0.1205292830 -0.0143537273 0.1831801655
0.2600369061 0.0998031735 0.1784801787
0.2937263769 0.1441986366 0.1846480406
0.3078236998 0.1451284641 0.1795704768
0.1531728233 -0.0026426107 0.1755705625
0.0983766570 -0.0337916720 0.1833576325
-0.0158652894 -0.1703108635 0.1685296121
0.3171784670 0.2148104263 0.2061734083
0.0874404718 -0.0800227139 0.1675466290
0.0203979385 -0.1517269698 0.1624952631
0.3234919107 0.2125622136 0.2027430576
-0.3399418619 -0.5433001348 0.1326643154
-0.0778882566 -0.2565041115 0.1552387907
0.0430526864 -0.1300986349 0.1630731400
-0.2675373518 -0.4583272849 0.1413891400
0.2530962509 0.1090711372 0.1852007741
0.2439630787 0.1237405005 0.1951178889
0.0389114472 -0.1167854895 0.1704608135
0.3164461746 0.1689765472 0.1865674569
0.0561670692 -0.0861919535 0.1770285434
-0.0111383965 -0.1683134626 0.1675585992
-0.0309272141 -0.1869204547 0.1671776211
0.2094546090 0.0409779094 0.1726181563
0.0237162353 -0.1514803740 0.1613121148
0.0932213405 -0.0572026348 0.1752023086
-0.1460902661 -0.3336386935 0.1482816177
0.3153214400 0.1600747517 0.1831416178
0.2201365901 0.0668456828 0.1796908850
0.2304826997 0.0960161474 0.1883274807
0.1676630393 -0.0032241632 0.1696843425
0.2208986552 0.0785111069 0.1844570716
-0.1357922845 -0.3267234279 0.1472787687
-0.2624668986 -0.4568961421 0.1400388092
-0.1217889745 -0.2957223138 0.1552878857
-0.0548152703 -0.2201182766 0.1620584127
-0.2237197092 -0.4099388932 0.1453519601
-0.2828494985 -0.4719397976 0.1414350875
-0.0400189381 -0.1984218964 0.1657211963
-0.0677099885 -0.2403854931 0.1582764940
-0.2876922656 -0.4871523763 0.1367161213
0.0281596000 -0.1241321579 0.1714529096
-0.1072581168 -0.2715393453 0.1601329991
0.0115764840 -0.1704697110 0.1577912279
0.2119835191 0.0425251882 0.1723063853
0.1889913656 0.0197079098 0.1713437234
0.1582052639 0.0364342133 0.1905722228
0.3353379574 0.2159041743 0.1995875980
0.2901014448 0.1463628841 0.1869966508
0.1739400921 0.0284913883 0.1810074995
-0.3751098428 -0.5803689880 0.1302508543
-0.1257839880 -0.3053160485 0.1526777373
-0.2245651131 -0.4124930300 0.1445722293
0.2860163280 0.1215189023 0.1778033383
0.1117194893 -0.0615165086 0.1661380645
-0.1620125918 -0.3394056463 0.1519695662
-0.1423001867 -0.3079322595 0.1579639226
0.0744990954 -0.0975410421 0.1649757946
0.1850487033 0.0172410211 0.1718060797
0.1489028000 -0.0061180944 0.1757224948
0.3539920567 0.1978009002 0.1844784916
0.2886253937 0.1306155777 0.1807366374
0.1757121785 0.0106637304 0.1725817832
-0.1702135781 -0.3486764230 0.1511348683
0.1134176294 -0.0536285293 0.1689009928
0.2336985882 0.1007434810 0.1891286684
0.2693915610 0.1410868348 0.1927590562
0.2532332463 0.0861775361 0.1752123036
0.1172997811 -0.0260879779 0.1793434575
-0.1598138360 -0.3431784468 0.1494773892
-0.1032642595 -0.2781944685 0.1556920304
0.1202233551 -0.0243907735 0.1789433036
0.0758387041 -0.0966250731 0.1648524564
-0.0561841309 -0.2354025617 0.1559576619
-0.3119294126 -0.5121502736 0.1352911869
0.3088898561 0.1622046625 0.1865665620
-0.0029794218 -0.1700473145 0.1636339189
-0.1991454632 -0.3745445796 0.1511575940
0.0584320629 -0.0902825511 0.1743726976
0.2258083298 0.0581703423 0.1737208305
0.2926421225 0.1790747973 0.2002049166
0.3008008088 0.1530265735 0.1857285659
0.0744833677 -0.0827179169 0.1714147468
-0.0828558895 -0.2683556835 0.1520269591
0.0932080044 -0.0843746424 0.1634155742
-0.1403811988 -0.3253190089 0.1496724331
0.3044850770 0.1850118153 0.1981768442
-0.3390363258 -0.5414164669 0.1331297012
-0.1013079844 -0.2832727868 0.1527275712
0.1398035720 -0.0103766490 0.1774122056
-0.5220100158 -0.5738301457 0.1657410775
-0.2927169558 -0.3117516573 0.1830798752
-0.1466894386 -0.1681749227 0.1932473581
-0.3983855735 -0.4628549172 0.1739521543
-0.5162835878 -0.5463520905 0.1669590876
0.0786524690 0.0461976962 0.2086677494
-0.1020760148 -0.1349878125 0.1959532533
-0.4780353589 -0.5012965697 0.1699015508
-0.4820983935 -0.5166146045 0.1691940309
-0.4138336257 -0.4224059759 0.1749629780
-0.2666247554 -0.2738634465 0.1853553761
-0.2901608686 -0.3185855617 0.1829073302
-0.5220580991 -0.5930749503 0.1650178178
-0.5328929341 -0.5865559888 0.1649073712
-0.4536873014 -0.4647574362 0.1720693292
-0.5063315981 -0.5315972363 0.1678383885
0.1296095567 0.1023691840 0.2124433591
-0.0791019990 -0.0939985520 0.1982429040
-0.2634346877 -0.3096739275 0.1841169694
-0.1921839153 -0.2356201610 0.1892279149
-0.4423570259 -0.5049989092 0.1709314025
-0.5441429833 -0.5525142651 0.1658154338
-0.3186728534 -0.3728851494 0.1799371356
-0.1732401422 -0.2184248076 0.1904932727
-0.4463125119 -0.4476132409 0.1729538114
-0.3470339448 -0.3534490043 0.1797369912
-0.3267896010 -0.3832498830 0.1792825810
-0.5598681226 -0.5693683754 0.1646683033
-0.4607519144 -0.5204362559 0.1697499498
-0.3793733760 -0.3935024997 0.1771756555
-0.4520088482 -0.4655890757 0.1720931225
-0.1975590613 -0.2091699179 0.1900437353
-0.2057488897 -0.2516263091 0.1881833422
-0.2351240462 -0.2632276383 0.1867860681
-0.1260692238 -0.1689728008 0.1938928794
-0.5426498036 -0.5708636522 0.1651762385
-0.4327265830 -0.4409638763 0.1736481889
0.0778312694 0.0541072514 0.2089374601
-0.3456331575 -0.3651256374 0.1793449993
-0.2118094941 -0.2467400200 0.1881680562
-0.5330894409 -0.5387766099 0.1666926723
-0.5341258985 -0.5747040872 0.1653114330
-0.5190513633 -0.5198101308 0.1678637552
-0.0330069393 -0.0487770475 0.2014486248
-0.3066319441 -0.3493927222 0.1812125229
-0.3652511043 -0.4085828119 0.1770727337
-0.4966282234 -0.5580904557 0.1671627332
-0.1972845992 -0.2404775989 0.1888786803
0.2622303966 0.2395933554 0.2219334661
-0.1560438459 -0.1812545983 0.1924504513
-0.5346281281 -0.5510231911 0.1661830209
-0.5271369052 -0.5295519721 0.1672335815
-0.4700642536 -0.4728151864 0.1712307133
-0.1401749183 -0.1628053382 0.1936621103
-0.2816370922 -0.3158250456 0.1832900576
-0.3474783982 -0.3511908887 0.1798071125
-0.3834982599 -0.4078927971 0.1765009001
-0.4824693109 -0.5169573052 0.1691690296
-0.5095314746 -0.5199950497 0.1681686571
-0.2154375393 -0.2595712254 0.1875680417
-0.5023069534 -0.5246915148 0.1682291872
-0.2742069319 -0.2805683577 0.1848555762
-0.4604529769 -0.5237381259 0.1696359209
0.0192221663 -0.0053700688 0.2047872291
0.1366073501 0.1061767669 0.2128153662
-0.3522093794 -0.3643321643 0.1791593420
-0.3890517153 -0.4357754218 0.1752733843
0.1625881812 0.1442406612 0.2150938072
-0.4055964508 -0.4255695753 0.1751141616
-0.4544856327 -0.4875438550 0.1711886828
-0.3214589816 -0.3786573717 0.1796294127
-0.4015254248 -0.4036065589 0.1760711317
-0.1523186589 -0.1916267499 0.1921835165
-0.5009544325 -0.5192713932 0.1684767466
-0.4672221072 -0.5176906416 0.1696409713
-0.1047343562 -0.1239736131 0.1962792109
-0.0018789332 -0.0264920762 0.2033039548
-0.2041634817 -0.2542587881 0.1881365557
0.0975782142 0.0810518316 0.2105947251
-0.5335811333 -0.5327820270 0.1669013646
0.0458812370 0.0273942592 0.2068891516
-0.4034947511 -0.4612376891 0.1738454429
0.0503047751 0.0241266908 0.2069115158
-0.4182341008 -0.4607656677 0.1733803372
-0.3119803762 -0.3349206207 0.1815800352
-0.1041134548 -0.1188597863 0.1964913190
-0.5432654115 -0.5559870789 0.1657139485
0.1227110472 0.1056777634 0.2123414620
-0.2784797649 -0.3326922843 0.1827609545
0.0738351741 0.0574852690 0.2089332392
-0.3199533579 -0.3309466782 0.1814678936
-0.1187420887 -0.1376684995 0.1953068080
-0.1168579194 -0.1396533979 0.1952940922
-0.2729299595 -0.3008885776 0.1841353921
-0.4786019052 -0.5043536615 0.1697683511
-0.0075649091 -0.0232648340 0.2032387256
-0.4320605653 -0.4830659189 0.1720911688
-0.3107188195 -0.3199936562 0.1821811238
-0.1604702302 -0.1947769458 0.1917983681
-0.3139035710 -0.3287931396 0.1817468205
-0.0953355166 -0.1195362712 0.1967534836
-0.5137367072 -0.5126575672 0.1683060665
-0.1110471790 -0.1406079695 0.1954486339
-0.0729971377 -0.0935499924 0.1984596978
-0.5490504953 -0.5692540560 0.1650269358
-0.0318355714 -0.0718494467 0.2006217740
-0.5111337321 -0.5343889377 0.1675763989
-0.5452759604 -0.5667814217 0.1652433000
-0.4545587743 -0.5189417241 0.1700088594
0.1151447883 0.0838868662 0.2112764555
-0.0365159336 -0.0677804956 0.2006210493
-0.5250470249 -0.5844371316 0.1652438318
-0.4404022998 -0.4574200887 0.1727796490
-0.5467599799 -0.5679917395 0.1651493018
-0.4512943626 -0.4636924311 0.1721876510
-0.2623300613 -0.2703201366 0.1856289293
-0.1411134318 -0.1741289012 0.1932067318
-0.3245554281 -0.3836954535 0.1793390553
-0.2583219008 -0.3036131518 0.1845117259
-0.3902260073 -0.4506286786 0.1746779183
-0.4620336826 -0.4803326998 0.1712118566
-0.1986972673 -0.2302875398 0.1892145361
-0.0543578944 -0.0741596460 0.1997973930
-0.4015305006 -0.4423486986 0.1746181260
-0.5351912129 -0.5622056489 0.1657452315
-0.5259669740 -0.5984302627 0.1646889519
0.1027384043 0.0701774766 0.2103559629
-0.4211460984 -0.4400495571 0.1740618100
-0.2831681251 -0.3267052381 0.1828318968
-0.5052909732 -0.5739126004 0.1662856394
-0.4578350417 -0.4849101945 0.1711777314
-0.4005727138 -0.4516722748 0.1742998633
-0.4371235327 -0.4503959331 0.1731504568
-0.2932181526 -0.3504620755 0.1816118080
-0.3694305135 -0.3867686974 0.1777538661
-0.3248356990 -0.3343920451 0.1811787640
-0.5013992300 -0.5245614902 0.1682637968
-0.0666991087 -0.0835678619 0.1990403302
-0.3085661068 -0.3668639862 0.1804939904
-0.4775827957 -0.5250877606 0.1690241999
0.1688318168 0.1502307314 0.2155229547
-0.5275033114 -0.5620383132 0.1660033339
-0.2174932935 -0.2509136560 0.1878253636
-0.1968612738 -0.2484113022 0.1885950311
-0.5394662362 -0.5882296390 0.1646292919
-0.3596418531 -0.3767520648 0.1784501325
-0.5192380478 -0.5571735524 0.1664565030
-0.5340206249 -0.5446618367 0.1664414728
-0.0618742398 -0.0997194427 0.1985926869
-0.3858490216 -0.4130507524 0.1762304732
-0.3749786038 -0.3966654655 0.1772010001
-0.3378554113 -0.3931503871 0.1785488348
-0.0468492729 -0.0633681533 0.2004480312
-0.1597465450 -0.2014591109 0.1915714907
-0.2421741460 -0.2488404342 0.1870946564
-0.1225785024 -0.1455048101 0.1948872777
-0.4080769676 -0.4189812005 0.1752799747
-0.1830890670 -0.2039714913 0.1907126611
-0.4863412222 -0.5020844875 0.1695999343
-0.5083988897 -0.5335622290 0.1676969840
0.3138581971 0.2534568268 0.2165827664
0.3246387060 0.2475487348 0.2133812824
0.3503582917 0.2580196251 0.2075394287
0.3547153262 0.2632101103 0.2060747590
0.3700832250 0.2527165260 0.1947363155
0.3792922095 0.2521566736 0.1888052408
0.3716204918 0.2683751313 0.1957812175
0.3944101722 0.2656777201 0.1788098163
0.3812565281 0.2887242659 0.1884415781
0.4073568402 0.3224019798 0.1624248666
0.4141860790 0.3331100976 0.1554000252
0.4101865297 0.2848655456 0.1638673853
0.4493086469 0.4153480663 0.1164539171
0.4053792686 0.2815668232 0.1683726915
0.4126462631 0.2938684235 0.1608034776
0.3932168753 0.2899323305 0.1780379290
0.4248978674 0.3763016917 0.1416438046
0.4188149480 0.3266981358 0.1520563517
0.3963148199 0.3086566534 0.1734130605
0.3891456793 0.2857554130 0.1819968705
0.3849657673 0.2925277217 0.1849143654
0.4251929272 0.3473960285 0.1443862223
0.4150494058 0.3231140660 0.1556891043
0.3983098594 0.3201240264 0.1704959819
0.4307100322 0.3608207541 0.1382159615
0.4279442153 0.3420518532 0.1425578245
0.4491168443 0.4221721264 0.1159122658
0.3989032169 0.3279440153 0.1691710745
0.4510975151 0.4245815656 0.1139470726
0.4249099325 0.3367081464 0.1457397927
0.4108796730 0.3294873893 0.1586391643
0.4122493284 0.3047821336 0.1600153174
0.5526393507 0.5535617746 0.1104935400
0.5779792342 0.5774528032 0.1116583899
0.4894182769 0.4831975784 0.1052062098
0.6012152348 0.5997533289 0.1128135308
0.6087555258 0.6051302121 0.1127767341
0.5855810481 0.5905631686 0.1133232858
0.4681534829 0.4648924798 0.1046146639
0.4540072389 0.4585028521 0.1055021728
0.5882371697 0.5894871483 0.1126529395
0.5663362547 0.5724872795 0.1124537935
0.4561700452 0.4549463430 0.1043630717
0.6452882742 0.6465761320 0.1160059083
0.5065265004 0.5032458878 0.1068599174
0.5528050211 0.5575307652 0.1113450666
0.5240533958 0.5318475895 0.1103386812
0.6038594782 0.6024117414 0.1129716841
0.5821922452 0.7250825587 0.0264558715
0.5982672658 0.7393966433 0.0203568761
0.4876598998 0.6253247222 0.0215674975
0.4791575940 0.6169763622 0.0227598254
0.5696826898 0.7143450806 0.0322528636
0.4213131830 0.5568214163 0.0220885806
0.4951324453 0.6326718123 0.0205453306
0.5348788376 0.6737719216 0.0203947266
0.5036158259 0.6429265688 0.0243907549
0.5201157892 0.6586391474 0.0207987762
0.5040044164 0.6424212945 0.0220166144
0.4242986273 0.5604400991 0.0234676446
0.4043632632 0.5392301151 0.0219851778
0.5682344667 0.7088003788 0.0216723563
0.5851117515 0.7266190005 0.0225670882
0.5336429518 0.6771859816 0.0500806266
0.5064592299 0.6483028918 0.0404113784
0.5039291173 0.6455882845 0.0493120200
0.5139974656 0.6562931590 0.0502458213
0.5458143855 0.6901213392 0.0532794994
0.4733013926 0.6130377656 0.0414431879
0.5474288550 0.6918563904 0.0465370394
0.5760069521 0.7222668027 0.0396602331
0.4453830644 0.5833492153 0.0407935620
0.5855075775 0.7323340198 0.0532144943
0.5589022855 0.7040713709 0.0415728255
0.4787961256 0.6188793080 0.0421652389
0.4781720189 0.6181988228 0.0484069276
0.5878219237 0.7348059567 0.0492312329
0.5146086022 0.6569514454 0.0471332385
0.5784149662 0.7224839065 0.0616476624
0.5952470556 0.7422906301 0.0580849492
0.5196496914 0.6591319420 0.0595555449
0.5935470130 0.7399109104 0.0593951128
0.4850208320 0.6206672827 0.0611618377
0.5403594190 0.6783779795 0.0680112298
0.5178275088 0.6554880806 0.0636991967
0.5416531769 0.6790003235 0.0699928176
0.5251099595 0.6649436331 0.0599372683
0.5761420703 0.7187167612 0.0648666143
0.5861609560 0.7266462832 0.0724185688
0.5530096250 0.6910661965 0.0708405569
0.4113937933 0.5400716448 0.0616026487
0.5892559810 0.7328134609 0.0654356384
0.5843528151 0.7253852774 0.0706294900
0.5400698270 0.6736121276 0.0752663737
0.4958595122 0.6272533978 0.0713112751
0.5902867333 0.7277084284 0.0781087286
0.5843919350 0.7112382811 0.0893789122
0.4296235274 0.5579708888 0.0651882480
0.4634960605 0.5930121723 0.0687658005
0.4359624726 0.5635213816 0.0670126100
0.5835836027 0.7181952188 0.0803576739
0.5928769426 0.7231796040 0.0866476698
0.5747322691 0.7107018115 0.0775155837
0.5701080485 0.7060394288 0.0768879888
0.4748922076 0.6016349715 0.0736003147
0.4381760417 0.5677091917 0.0650702583
0.4745608163 0.6012995836 0.0735567852
0.5402675634 0.6710011760 0.0785156042
0.5529924684 0.6709622343 0.0926281791
0.4766393128 0.5881932994 0.0881082398
0.5940523714 0.7118608131 0.0973962153
0.4856512966 0.6021624204 0.0859235410
0.4751464537 0.5925635638 0.0841440301
0.5125721941 0.6307844701 0.0878802483
0.4448449266 0.5604891739 0.0818497589
0.6029073076 0.7161335533 0.1013675933
0.5903331294 0.7075926140 0.0973290684
0.4558053211 0.5683032264 0.0851309836
0.4999382020 0.6154754524 0.0881765593
0.6008416895 0.7165406962 0.0995325923
0.6008586047 0.7232024793 0.0952339147
0.5069229474 0.6247617337 0.0874803258
0.6007013833 0.7082812096 0.1047714391
0.5215311855 0.6105910581 0.1045351311
0.5895218159 0.6778625818 0.1112716274
0.5534453252 0.6458870129 0.1063650569
0.5882791251 0.6868017297 0.1075064949
0.5146726116 0.6079969590 0.1023542071
0.5292172817 0.6279756597 0.1017939478
0.5631560768 0.6510974871 0.1089022244
0.4519435207 0.5442658923 0.0967355125
0.6183575386 0.7027581940 0.1154306172
0.5411338983 0.6315636792 0.1059124621
0.5678229822 0.6530375093 0.1103235986
0.6014962570 0.7035822569 0.1074897167
0.5431788356 0.6380544858 0.1045150008
0.5276479335 0.6156483271 0.1054974681
0.4249696511 0.5179574883 0.0939267846
0.5878156338 0.6495519736 0.1169023846
0.5017536433 0.5692036825 0.1090206315
0.5003116222 0.5645030154 0.1093788724
0.6312095178 0.7053656059 0.1186400189
0.5768671854 0.6454327711 0.1150077271
0.6121981424 0.6833110382 0.1175282222
0.5927446872 0.6661156358 0.1156053547
0.6197409874 0.6875665911 0.1186263139
0.5296223060 0.5987379823 0.1110590009
0.5105302258 0.5839395215 0.1088681867
0.6307266807 0.6910404532 0.1206237933
0.5907122448 0.6573461029 0.1164236914
0.5612889772 0.6218323445 0.1149048075
0.5848752478 0.6565561284 0.1152080545
0.5753572980 0.6343935113 0.1162769928
0.4917758810 0.5356479885 0.1113825358
0.5434869448 0.5809114271 0.1147736913
0.4977246252 0.5363202568 0.1116025483
0.5689944502 0.6097900010 0.1166921938
0.5372087310 0.5806635081 0.1145588076
0.5990535281 0.6504509542 0.1192017005
0.6154772634 0.6684230843 0.1204136455
0.6331547554 0.6821623043 0.1215078682
0.5638984845 0.6084956853 0.1164767730
0.6045932039 0.6500397255 0.1193676755
0.5638942981 0.6129043547 0.1166420062
0.5756432641 0.6098194226 0.1169110172
0.4798203910 0.5230847093 0.1105197938
0.6061776862 0.6423023385 0.1191293290
0.6188714134 0.6623008870 0.1202951440
0.6470276075 0.6806719157 0.1219062389
0.6483574258 0.6524809232 0.1168134665
0.6509234351 0.6652509234 0.1192224145
0.5659185265 0.5778657404 0.1137122135
0.6199369644 0.6410717952 0.1189125667
0.5581136897 0.5677773283 0.1127492210
0.6651530567 0.6665769294 0.1172005737
0.5469521960 0.5607745477 0.1130153612
0.6583294254 0.6820570731 0.1217371859
0.6037177747 0.6250008014 0.1179945282
0.5360990575 0.5527950111 0.1130151363
0.6495217203 0.6720816255 0.1209623755
0.5907646065 0.6132664344 0.1175049223
0.6050048287 0.6125449173 0.1150281649
0.5421613477 0.5531173789 0.1121000789
0.5780630253 0.5962538468 0.1158061165
0.3571939584 0.2352602189 0.1977441221
0.6022900259 0.7427066194 0.0086487491
0.6229698207 0.7375952384 -0.0218023845
0.6432887780 0.7447217143 -0.0266098912
0.6626586305 0.7333958935 -0.0316395821
0.6743875319 0.7144029854 -0.0373958507
0.6776338426 0.7085322015 -0.0375093821
0.6517217231 0.6754634826 -0.0282491190
0.6439837404 0.6587960979 -0.0275774944
0.6713831630 0.6797718594 -0.0243951463
0.6446147514 0.6677829534 -0.0287471883
0.6509881273 0.6697350353 -0.0275790954
0.6543423259 0.6702715313 -0.0268926011
0.6512692884 0.6522558014 -0.0249600671
0.6511894868 0.6735986630 -0.0280979160
0.6054103626 0.6081656958 -0.0289734537
0.5418172731 0.5382493721 -0.0332560778
0.6051519103 0.6180291414 -0.0304741163
0.5508262912 0.5438487662 -0.0320200575
0.6028809746 0.6074533436 -0.0294461483
0.4964498741 0.4860654592 -0.0359743151
0.6576527930 0.6611254859 -0.0248007987
0.4743061207 0.4441968111 -0.0322012038
0.4297569413 0.3200457063 -0.1001768014
0.4338327035 0.3393095282 -0.0924619574
0.4564716743 0.4129249454 -0.0559267800
0.4701990122 0.4303545265 -0.0389215059
0.4674199270 0.4485213400 -0.0382590826
0.4507837878 0.3756792602 -0.0686538562
0.4658597539 0.4258286788 -0.0441107986
0.4690537763 0.4280942538 -0.0404927515
0.4499173378 0.3760205895 -0.0694544574
0.4206870123 0.2745738251 -0.1147664102
0.4496092539 0.2322778865 -0.0581201548
0.4599794599 0.2143569356 -0.0021261931
0.4484916716 0.2029844237 0.0718620305
0.4280353820 0.2099850142 0.1240178325
0.4168592162 0.2136535176 0.1440821917
0.3755466425 0.2499921783 0.1908523476
0.3513368750 0.2265501623 0.1975034904
0.3329251642 0.2351912892 0.2087673905
-0.3636621832 -0.5050106610 0.1585034520
0.1060190835 -0.0179199541 0.1872741308
0.0453217019 -0.0857427598 0.1814401946
-0.0099656877 -0.1400544850 0.1793662815
-0.0975429519 -0.2313186406 0.1738104146
-0.2382896238 -0.3979799715 0.1562066391
-0.2961602729 -0.4418844619 0.1596535651
-0.4217385002 -0.6265744968 0.1283282781
0.0000880423 -0.1322048526 0.1788638884
-0.0008224798 -0.1435596163 0.1742902407
-0.4258832471 -0.6189053081 0.1332679902
-0.1365373052 -0.2885617364 0.1641295813
-0.3229948538 -0.4731392231 0.1565232108
-0.2220824777 -0.3694738326 0.1622761457
-0.3550367046 -0.4966449889 0.1587803149
-0.3208776794 -0.4983713760 0.1447499719
0.1457019005 0.0333028107 0.1940746257
-0.2443570458 -0.4046478348 0.1556719989
-0.1294770521 -0.2747254808 0.1673890947
0.0830677406 -0.0413310519 0.1860378999
-0.3631761305 -0.5287674013 0.1480046877
-0.2542131425 -0.4242717933 0.1509878112
-0.4473405300 -0.6283801343 0.1374988306
-0.4380396740 -0.6372127575 0.1300495077
0.2004715649 0.0974799684 0.2006311640
-0.2221515105 -0.3674162379 0.1631959265
-0.3760352702 -0.5510546711 0.1433322873
0.1079282031 -0.0108591604 0.1895960533
0.1724448288 0.0561755896 0.1936030602
-0.4602241545 -0.6339288615 0.1401000265
-0.3865184311 -0.5577609287 0.1444978384
-0.4048256116 -0.5679578464 0.1471905408
0.2397866490 0.1374749470 0.2027020780
-0.4357799883 -0.5841242615 0.1522099119
-0.3997250614 -0.5697072877 0.1444482202
-0.4585307211 -0.6159463561 0.1472455372
-0.3485477724 -0.5402326913 0.1373415086
-0.2284276810 -0.3659122661 0.1662888048
-0.0663807411 -0.1870671235 0.1808984145
-0.1199683521 -0.2737606876 0.1641107762
0.0548050572 -0.0658546900 0.1863839226
-0.3028860461 -0.4581782864 0.1551974860
-0.1582151796 -0.2962723635 0.1692118032
0.0671432039 -0.0520672974 0.1875701690
0.1961339245 0.0822752671 0.1957192216
0.0804240075 -0.0304664848 0.1917807213
-0.3577744522 -0.5043278525 0.1565106039
-0.2558600033 -0.4376507381 0.1458220143
-0.0188925024 -0.1379804014 0.1837371518
-0.4719344440 -0.6439980769 0.1402832560
0.0982405695 -0.0238280105 0.1877345044
0.0502024943 -0.0730053794 0.1850702071
-0.1192105112 -0.2455115588 0.1760754863
-0.3907944428 -0.5875203753 0.1332455671
-0.3710593401 -0.5332551870 0.1491221266
0.0061787758 -0.1101690023 0.1860587574
-0.4506452027 -0.6292397996 0.1384106262
-0.0849208056 -0.2267653283 0.1708788990
-0.4049627339 -0.5507744479 0.1547009864
0.0307753481 -0.0915910063 0.1845578818
-0.1940700889 -0.3407669271 0.1638428637
-0.1451107415 -0.2729369464 0.1742436985
-0.0392088821 -0.1726443837 0.1765929901
-0.3307726612 -0.5033151578 0.1464517040
-0.4632457291 -0.6176553992 0.1483370686
0.1412071407 0.0242446090 0.1918911870
-0.1239054770 -0.2607911143 0.1712699884
-0.3629607510 -0.5266791820 0.1488271785
-0.3964558827 -0.5387118186 0.1566283518
0.1061031852 -0.0161222389 0.1880215918
-0.4176372109 -0.6214594544 0.1289534744
0.0634646143 -0.0494619089 0.1901310848
0.2876479093 0.1894216098 0.2066369205
-0.3147493265 -0.4880312319 0.1468545929
-0.1400434104 -0.3002983625 0.1603993866
0.1392955726 0.0296989100 0.1950014306
-0.2846388528 -0.4605720243 0.1470641015
-0.3969460300 -0.5737388585 0.1416181308
-0.4041023828 -0.5517505777 0.1539428651
-0.2563119291 -0.4298299129 0.1493917520
-0.4276056174 -0.5838207277 0.1491634161
0.1045809342 -0.0190058224 0.1873620502
-0.3879694809 -0.5783817282 0.1361131396
-0.2790554572 -0.4222952408 0.1615043526
-0.2882915498 -0.4349869788 0.1595875023
-0.4136567216 -0.5616443789 0.1533639791
-0.1482537416 -0.3103868607 0.1592134529
-0.3511093972 -0.5467699517 0.1355004816
-0.1998327954 -0.3709250780 0.1529955970
-0.1253791663 -0.2813602378 0.1629165179
-0.1333576763 -0.2761135320 0.1682955169
0.0973312994 -0.0238703143 0.1880696728
-0.2683703118 -0.4126687049 0.1615275915
-0.2023645741 -0.3709612757 0.1539642519
0.0914783881 -0.0299692155 0.1876985445
-0.3543172370 -0.5061260404 0.1543860627
-0.1607755152 -0.2985003691 0.1692403754
0.0130091645 -0.1193376075 0.1794241528
-0.4014562846 -0.5671917837 0.1462129862
-0.3498751625 -0.5339607499 0.1405794557
-0.4338243824 -0.6277176742 0.1325311993
-0.0882092596 -0.2208672113 0.1747170842
-0.0373130456 -0.1579304234 0.1822413453
-0.2055077382 -0.3510801074 0.1638142157
-0.3460724080 -0.5154072013 0.1471526731
-0.4068639572 -0.5799143470 0.1427942567
0.0265569404 -0.0885987497 0.1874965708
-0.1881960498 -0.3226719613 0.1694117464
-0.3391379204 -0.4979592348 0.1520284698
0.2420919654 0.1386108149 0.2022986997
-0.1739403719 -0.3349583642 0.1585371257
0.0805671679 -0.0411868359 0.1870727163
-0.1524030537 -0.2893698590 0.1699475313
-0.3317341372 -0.4789214983 0.1574117202
-0.3301318984 -0.5084061122 0.1439932365
-0.1092470358 -0.2430900856 0.1732525095
-0.3280970583 -0.5020220439 0.1459725978
-0.4615726102 -0.6490971617 0.1340416766
-0.2067717011 -0.3704725272 0.1558898605
-0.2154562700 -0.3553441459 0.1658317585
-0.3980892765 -0.5435088096 0.1551816557
-0.3515537003 -0.5193364394 0.1475786334
-0.2191775723 -0.3908815206 0.1518563493
-0.4663293461 -0.6328226448 0.1429538127
-0.3920310723 -0.5892733882 0.1329656122
-0.2108319237 -0.3779781270 0.1542112599
0.0179705345 -0.1073995737 0.1826759415
-0.3355410193 -0.4963171595 0.1513425997
-0.2085703387 -0.3509466439 0.1650628840
0.1949171491 0.0888314880 0.1990375311
-0.1550466938 -0.2951824077 0.1684528973
-0.1517249632 -0.2894117947 0.1696656886
-0.4246473931 -0.6216653686 0.1315896943
-0.2145309180 -0.3745098669 0.1571545721
-0.4364063577 -0.6024193850 0.1445138556
0.2851446602 0.1857152634 0.2060017371
-0.1900178989 -0.3377372764 0.1635821462
-0.2884660145 -0.4532835516 0.1517151150
-0.0305929167 -0.1513181712 0.1824980772
-0.4044147286 -0.5601746098 0.1504085032
-0.1364835325 -0.2697254098 0.1722831327
-0.0112336541 -0.1414077554 0.1792719879
-0.3231408803 -0.4653455815 0.1599622169
-0.3086386833 -0.4768084099 0.1493491578
-0.1097783297 -0.2333378352 0.1776912923
-0.1067385702 -0.2403015299 0.1734873682
-0.2163018508 -0.3802823113 0.1553380310
0.0653420216 -0.0679263604 0.1813880682
-0.4388489529 -0.6372120198 0.1303644780
-0.1234848513 -0.2665749403 0.1685964231
-0.4277551944 -0.6103530816 0.1377072452
-0.1152634698 -0.2546314244 0.1705830881
-0.3167874140 -0.4735311800 0.1539396397
0.1180872851 0.0072093714 0.1934874261
-0.3130430753 -0.4753062986 0.1517134753
-0.2964141381 -0.4819829800 0.1423505918
-0.4491791517 -0.6144318686 0.1442668641
-0.4212702507 -0.5811445187 0.1478616080
-0.3008760555 -0.4404810666 0.1620961121
0.0477370337 -0.0680358639 0.1881854219
-0.1203296309 -0.1937091591 0.1883875884
0.1932886390 0.1359759770 0.2103292862
-0.0528390947 -0.1242381893 0.1927824232
0.2866951178 0.2051347306 0.2104369855
0.0351355171 -0.0200652509 0.2015256159
0.0961825320 0.0532011706 0.2078094174
0.1378457593 0.0694510782 0.2046258024
0.2548709559 0.2040678237 0.2153804195
0.2724837316 0.1861422977 0.2085454655
0.1253477516 0.0627834349 0.2051838704
0.1570091805 0.0707975744 0.2018048958
0.1617514764 0.1025899723 0.2080712297
-0.4209875374 -0.4941195362 0.1708173181
-0.1991920728 -0.2553713630 0.1875723170
-0.2649503469 -0.3315151824 0.1814183125
-0.4144840847 -0.4837552337 0.1720532735
0.2902470640 0.2039878111 0.2096049749
0.1944624844 0.1278749107 0.2083448255
0.0287342977 -0.0366536893 0.1988951263
0.2809673941 0.1896088604 0.2079321100
-0.1326450790 -0.2085773020 0.1871005224
-0.0955359063 -0.1605235079 0.1916988366
0.1813726931 0.1458030083 0.2144441985
-0.2313114745 -0.2891328131 0.1853259086
-0.1495656829 -0.2249788774 0.1862235106
-0.2773630940 -0.3523545312 0.1788251814
-0.3099544696 -0.3716587196 0.1798561288
-0.0880265657 -0.1627357368 0.1899868925
-0.3117395414 -0.3901107081 0.1760617746
-0.0675398720 -0.1244391349 0.1951306016
-0.3209878000 -0.3881272419 0.1780060976
0.2303909289 0.1916977868 0.2166262606
0.2540379942 0.1966022478 0.2138632664
0.1057393961 0.0546544862 0.2065756988
-0.3580849406 -0.4295539956 0.1748729146
0.2309703224 0.1911942843 0.2164204948
0.2702881277 0.2100729996 0.2142005788
0.0384747432 -0.0455717076 0.1953355299
-0.2520834449 -0.3197053011 0.1819385893
0.2488194868 0.2107808470 0.2178514666
-0.0226114670 -0.0730238121 0.1992004490
0.2509767875 0.2009469477 0.2153233278
0.0883336829 0.0335821662 0.2047436361
0.2187893991 0.1658448702 0.2127911975
0.1686169707 0.0832884769 0.2026808667
-0.0768385908 -0.1570084739 0.1894338617
0.2038454027 0.1707521969 0.2163098275
0.1778706961 0.0891916481 0.2024815922
0.2751606443 0.2147666909 0.2144466257
0.0098387518 -0.0654210168 0.1956020299
-0.4397635473 -0.5091844739 0.1705381916
-0.1052077769 -0.1566017373 0.1941412062
0.0857822103 -0.0012652513 0.1974444109
-0.4793188493 -0.5526288210 0.1673584397
-0.1680028081 -0.2360973668 0.1867628899
-0.1052907854 -0.1853520134 0.1877900006
-0.0087394606 -0.0863508085 0.1939923530
0.2690817377 0.2390025206 0.2208013250
-0.4215079315 -0.4936210388 0.1710123732
0.2787967603 0.2562815408 0.2230453483
0.0041234780 -0.0791775652 0.1934868192
-0.0096619815 -0.0703813196 0.1976778146
0.2863931387 0.2409269789 0.2184097976
0.0703176768 -0.0087513087 0.1983041236
0.1903962017 0.1430721398 0.2123709960
-0.0123778863 -0.0906682795 0.1936287359
0.1722022913 0.0880067066 0.2031418468
0.0795874386 0.0204463035 0.2032591460
-0.1489045818 -0.2014418039 0.1913265321
0.2607469870 0.1718582760 0.2072935235
-0.0593607687 -0.1169406895 0.1954593908
0.1705977881 0.1356354963 0.2139470199
0.0568011466 -0.0166903894 0.1987464939
0.0887481320 0.0110664770 0.1996916739
0.2736740486 0.2374140892 0.2197022455
0.2184995300 0.1413144738 0.2074078540
-0.2697772427 -0.3359739861 0.1812168398
0.0617706342 -0.0156546870 0.1981669550
-0.0035907695 -0.0685223410 0.1971012179
0.0586998289 -0.0230952065 0.1970195749
0.2011555432 0.1459610898 0.2112593848
0.2188952212 0.1451050156 0.2081825998
-0.1438299231 -0.1965394522 0.1915858719
0.0723795042 0.0155466870 0.2033476187
0.1503023924 0.1102660181 0.2116339731
-0.3685405376 -0.4447377944 0.1732132641
-0.0047738717 -0.0855424715 0.1935258723
-0.0436950856 -0.0964009019 0.1974567651
0.2166442586 0.1299019644 0.2051833203
0.0746552126 -0.0123907625 0.1967924568
-0.0154049297 -0.0705907351 0.1985661630
0.3119537389 0.2353243450 0.2130093078
0.2036138082 0.1533587763 0.2124969780
-0.0841829277 -0.1341320539 0.1956935743
-0.3809914743 -0.4465681081 0.1748345554
0.1962141354 0.1455340884 0.2119691073
0.2136144343 0.1311974016 0.2059632303
0.0822040107 -0.0011160290 0.1980598250
0.0247127406 -0.0179236471 0.2036961090
-0.0865097244 -0.1684792551 0.1884685190
0.0512187746 -0.0183063572 0.1992973257
0.2306483079 0.1574384015 0.2090000516
-0.4366189386 -0.5073042527 0.1704426246
0.1174183967 0.0579941184 0.2054141779
-0.3925964001 -0.4631861617 0.1730444526
0.1937698834 0.1608122288 0.2157491920
0.0436063978 -0.0201446671 0.2001293343
-0.2836366973 -0.3541422432 0.1794504958
-0.0148672717 -0.0619259995 0.2003968481
0.1278744731 0.0776086837 0.2080546304
0.1105072153 0.0677649974 0.2087020956
-0.1382426486 -0.1945791196 0.1911104774
0.2563244867 0.2138372951 0.2173066050
0.1134375962 0.0749526442 0.2098163501
-0.0948004398 -0.1445567176 0.1951138507
0.1706052836 0.0924147558 0.2043776227
-0.4165476669 -0.4862639793 0.1718337529
0.3094057208 0.2259344166 0.2113452814
0.2673417683 0.1796331110 0.2079413601
-0.4305524308 -0.4995144583 0.1711797533
0.0614762587 -0.0195256032 0.1973579261
-0.3535589561 -0.4284472754 0.1743812810
0.0687578780 0.0269313514 0.2064573949
0.2538545687 0.1678716648 0.2075327640
0.0959542428 0.0222812690 0.2010015472
0.2719094863 0.1916241234 0.2098524910
0.1999824265 0.1417821824 0.2105251949
-0.0206065384 -0.0709970478 0.1993228152
-0.0409633718 -0.1102742757 0.1939408800
-0.1113119340 -0.1678111175 0.1926531797
