0.0055850081 0.0021278573 0.0270923183
0.0582129597 -0.0242551717 0.1906190745
0.0585779179 -0.0228564297 0.2054185094
0.0294287485 -0.0046151976 -0.2020687643
0.0679327388 0.0660673199 0.1479308893
0.0531227396 0.0311258140 -0.0071836156
0.0308951196 0.0045052486 -0.1717584070
0.0749564202 0.0786244739 0.2108789914
0.0734618573 0.0661193493 0.1714395454
0.0375639977 0.0200900561 -0.1022572074
-0.1489732426 -0.0921614988 -0.6606994950
-0.1198648326 -0.0535195605 -0.4373715387
0.1738005518 0.2564942170 0.6094160180
0.1738796074 0.2696224088 0.6198677088
-0.0626971335 0.1356074482 0.4006586443
-0.1574469826 -0.1858876598 -0.7931579775
-0.1544498774 -0.0055780505 -0.1183001292
-0.1526839280 -0.0088539633 -0.1301760558
-0.1625682846 0.0011772855 -0.1164874052
0.1692144318 -0.0029133394 0.2527557499
0.1611885969 0.2342178153 0.6094772968
-0.0437792360 -0.1130939159 -0.7896668017
0.4951790672 -0.3231543003 0.0648181078
-0.4182996618 0.2565422670 0.1088070592
0.1026966508 0.0768585609 0.4346616812
0.0969391859 0.0530694880 0.2862096373
0.4293531877 -0.2822091420 0.0886039369
0.0867444915 0.0402233198 0.1937114271
-0.3171662682 0.1671311469 0.0614682931
-0.3048275281 0.1567247033 0.0639834123
0.0162118989 0.1059852547 0.3927136820
0.0541718013 -0.0285361997 -0.0367053319
0.0916015496 0.3355101618 0.6106944795
0.0421259754 -0.0307839116 0.0081954102
-0.0651351751 0.0131480645 -0.0589014156
0.0469518951 0.3547677562 0.5746287473
0.0133530325 0.3801454713 0.6054330538
-0.2490223997 0.0985760495 -0.0769905122
0.0471908308 -0.0375595188 0.1218196208
-0.0050556751 0.1319503831 0.4049234382
-0.1706403971 -0.1265093147 -0.8620514787
-0.0435325133 0.1576237870 0.2873188187
-0.0373676249 0.0518133835 -0.0022025258
-0.1614855359 -0.1824413132 -0.8011991894
-0.1036778201 -0.0863281784 -0.8462520471
-0.4752806613 0.2989130050 0.0712014967
0.0960292745 0.0780429483 0.3245261017
-0.1225643883 -0.1649976324 -0.9550281874
0.0542197743 0.1226928133 0.3993946214
-0.0355388282 -0.0358420534 0.0866890805
-0.0148909134 0.0972860381 0.3431793603
0.0025537961 0.1009799335 0.3170305377
-0.0552620633 -0.1672214909 -0.8482806130
-0.0343070040 0.1217662648 0.3899613993
0.0608874356 0.0769304270 0.1583133469
0.0085333207 -0.0038748331 -0.2859923314
-0.0185343707 -0.0413968138 -0.5011131302
0.0482513201 0.0530588709 0.0361383092
0.0630790128 0.0777515226 0.1681689302
0.0130271536 0.0073427413 -0.2332159440
0.0052405033 0.0020385222 -0.2763310712
-0.0460897191 0.0451637441 0.1207261139
-0.0079051915 0.1499907511 0.3770724602
-0.1760864951 -0.1733180787 -0.8527893285
-0.0038596886 0.1171685576 0.3160864436
-0.1037413793 -0.2119381218 -0.8323922303
0.0671400206 -0.1223113134 -0.0165234281
0.0532642820 -0.1207519510 -0.0409610271
0.1545767241 -0.1789455186 -0.0575272842
0.0984210814 -0.1413019262 -0.0259394460
0.0558391025 -0.1132143492 -0.0037905003
-0.0258636836 -0.1126532099 -0.2300150758
0.0461496599 0.0393905099 0.2692780764
-0.0237713318 0.0720745174 0.1327920960
-0.0614853526 -0.1015570708 -0.2222876938
-0.0390216398 -0.0275298609 0.0925447740
-0.0225375285 -0.0065897858 0.2523391420
-0.0811022582 -0.0604643398 -0.0385449153
0.0863788822 0.1191175409 0.4356683862
-0.0808119398 -0.0017229758 -0.1038745694
-0.1362838430 -0.0726192611 -0.6673716878
-0.0115147053 -0.1170280025 -0.1922732135
0.3631256346 0.1546736089 0.5937562402
0.3306368157 0.1742000185 0.5783626372
-0.0230702815 0.1011157753 0.2585360639
0.0284883348 -0.0728589166 -0.0139516680
0.1308013218 0.0243266164 0.2369703914
-0.0135921901 -0.0905476099 -0.5812147759
-0.0084777780 -0.0812024359 -0.5406673970
-0.0647421595 -0.0192536441 -0.4854510201
-0.0468938615 0.0114374018 -0.3013336067
-0.2677211437 0.0963543189 -0.0472022031
-0.0530670012 -0.0291183898 -0.2434378833
0.0336176154 0.1086292824 0.4787349832
0.0293449200 0.0635223736 0.2628316219
0.1718514112 0.0359063241 0.3943895115
-0.1119383356 -0.0423049474 -0.5204037447
0.0914891501 0.0993694939 0.3703224064
-0.0196471880 0.0099943196 -0.0051855917
-0.0460246790 -0.0198635598 -0.4801952741
0.0255145589 0.0797946291 0.1000346430
0.0142010696 0.0765467065 0.0752671212
-0.0649862452 -0.0465823518 -0.6355629804
-0.0076834726 0.0392323353 -0.1387392594
-0.0267884732 0.0140184481 -0.2862444024
-0.0042672032 0.0498268374 -0.0798959837
-0.0145347020 0.0264164505 -0.2119081346
0.0384106093 0.0785181338 0.5054401877
0.0397351158 0.0932813904 0.5167984247
0.0721003626 0.1304330934 0.5318944046
0.1360814734 0.2012800128 0.5682663989
0.0334058083 -0.0980843651 0.0095207704
-0.0031845660 0.1220750227 0.3243089236
-0.0688294562 -0.1909508468 -0.7756160786
-0.0538845911 -0.0832244066 -0.0596044781
-0.1025878605 -0.0522799524 -0.1078757384
0.1437082508 0.0276545918 0.2290939303
0.0864028502 0.1079426341 0.4180780327
0.1750779435 0.0252041419 0.3527792923
-0.0086903149 -0.1099371906 -0.5260212981
-0.0447966463 -0.1627237416 -0.7689899280
-0.0221693704 0.0136193993 0.0028037687
0.1891458270 0.2881757421 0.5516302972
-0.2427667030 0.0849652758 -0.0943611090
-0.0155903904 -0.0180175127 0.1126442328
0.0981323736 0.1274865294 0.4253139647
0.2834368830 -0.2177015542 0.0473233648
0.2597829505 -0.2066022412 0.0525362137
0.2683947301 -0.2102876460 0.0570750819
-0.1145218862 -0.0891173461 -0.8518228156
-0.0100530674 -0.1194236586 -0.4745508720
0.0722297335 -0.0091600033 0.1462480355
-0.0584162466 -0.1823208375 -0.7736091608
0.3538933072 -0.2530849507 0.0669158407
0.3341452643 -0.2492695563 0.0388957072
0.3225587309 -0.2424163284 0.0433865556
0.3855393020 -0.2662014401 0.0799008196
0.3572880796 -0.2584955525 0.0500878168
0.0228156647 -0.1271380713 -0.1722244023
-0.1187038107 -0.0755659855 -0.8047744974
-0.1724497763 -0.1454850653 -0.7985063938
-0.0726093741 -0.0029497939 -0.1627336646
0.0337590673 -0.1233459162 -0.0954492291
-0.0192657981 -0.0775325832 -0.2756784629
0.1528295215 -0.0251529627 0.2408457933
0.0956459989 0.1445972563 0.5052404157
-0.0620685253 -0.0932519396 -0.1197188561
-0.0564071084 -0.0928358635 -0.1038678802
0.0085518141 0.0065853925 0.0521938445
-0.4338681068 0.2701002659 0.1198784451
0.4654636114 -0.3086696578 0.0659544032
0.4487305623 -0.3012618689 0.0621962042
0.1298959050 0.0366057505 0.2485930782
-0.0035019493 -0.1055533947 -0.4763124775
0.1891720251 0.2896024468 0.5238825591
0.1204767475 0.3134919520 0.5959346044
-0.0236747586 0.0690428253 0.2948158337
-0.0317583927 0.0662138253 0.2102545733
0.1284723347 -0.0150559623 0.3725579865
-0.0673824891 0.1414479752 0.3815541985
0.0787852686 0.0007350802 0.1845080360
-0.3880781888 0.2275937884 0.0996261151
-0.2846448186 0.1324626236 0.0422306672
-0.0683964086 -0.1010154624 -0.1866210084
0.0975416486 0.0202837698 0.3140760172
-0.4229451534 0.2421052177 0.0444514285
-0.3957751006 0.2168010292 0.0290021946
-0.1140742678 -0.1203574581 -0.9009142033
0.1318660129 0.0042851880 0.2550640925
0.4682218783 -0.3090926440 0.0432452482
0.0007757986 0.0232829143 0.0985766358
-0.0655433918 0.0064835128 0.0547007424
0.1142087072 0.0000840284 0.3762685115
0.1340402069 -0.1460158437 -0.0460849612
0.1170665536 -0.1371326394 -0.0536905458
0.1440107329 -0.1503841470 -0.0316281616
0.0623216018 -0.1062071477 -0.0512153126
0.1279430684 -0.1410731884 -0.0281999384
-0.0254338075 -0.1016744146 -0.2532828486
0.3319149627 -0.2385569452 0.0732195376
-0.4453975198 0.2714811516 0.0480478000
0.0740420954 0.1269439587 0.4579608520
-0.1985986841 0.0698370009 0.0036240096
0.0275928404 -0.0860918708 -0.0244837582
-0.0218236541 -0.1120163972 -0.6487582728
0.3907107762 -0.2784599333 0.0046960666
-0.0497587516 -0.0501304920 0.0547172036
-0.0310807363 0.0560526412 0.2732412520
-0.0914196592 -0.0645918744 -0.0847291505
0.1289888833 0.1945482283 0.5346978967
0.4260942663 -0.2960934201 0.0307901669
0.1071876335 -0.0235925375 0.3174926827
0.0059627655 0.0917500891 0.3667990352
0.0142976112 0.0888140368 0.3747743664
-0.0061080763 0.1100280254 0.4030621700
0.0134206081 0.0866806402 0.3656569799
-0.0211553442 0.0906118578 0.3040224956
-0.1381171594 -0.1214927753 -0.8999429271
0.0603690126 0.0087907761 -0.0089271631
-0.0009426471 -0.0119861073 -0.0450617794
-0.0444538826 0.0487507019 0.0408603121
0.0374710547 0.0829963874 0.3594672722
0.0347195169 0.0766935923 0.3047809504
0.0442290341 0.0736691613 0.3253929164
0.0223793663 0.0879226869 0.3275579423
0.0465499520 0.0773681308 0.3605864025
0.0312031406 0.0887086408 0.3712177408
-0.1035702311 -0.0720398359 -0.1589586942
0.0840015222 -0.1527616557 -0.1447169503
-0.0959641254 -0.0916777600 -0.8540305510
-0.0228255024 -0.0432752445 -0.2235009067
-0.0357944749 0.0763118849 0.2941177571
-0.0937288891 -0.0155133957 -0.2820675966
0.1033095327 -0.0421640617 0.2485094928
-0.0233572261 -0.1360419072 -0.5047477400
-0.2387059700 0.0987097840 0.0445328095
-0.0280181592 0.0026137882 0.2535098533
0.0392407017 0.0053804969 -0.1329748540
-0.0376573568 0.0221776460 0.0919848110
0.2072952315 -0.2070503223 -0.0647120077
-0.2954326996 0.1395718776 -0.0470803216
0.0754179540 0.0954838808 0.2746948928
0.0964584581 0.1068342416 0.4329873823
-0.1355745542 -0.2016466834 -0.7910887972
-0.1094475107 -0.0705594248 -0.0043550338
-0.0429757059 0.0691721287 0.2614474196
-0.0966373816 -0.0483745174 -0.6472339446
0.1693799499 -0.0121138122 0.2603838567
-0.0474458732 -0.0491388498 -0.2898936182
-0.0625204082 -0.1853617426 -0.8366639878
0.1019984874 0.0806253306 0.4053572035
0.1006477560 -0.0252159228 0.2535785465
-0.0377271994 0.0329604179 0.2442941070
0.0165294330 0.0883316704 0.4428524704
0.0335593500 -0.0619876390 0.0310284238
-0.2174450929 0.0831773455 0.0344930947
-0.1015854416 -0.0353687433 -0.1105514382
0.0348070052 -0.0515534835 0.0573156578
-0.0295376314 -0.1401949514 -0.4873342407
-0.0932878210 -0.0203879596 -0.2118931566
-0.0592434744 0.0238752911 -0.1585360775
0.2229486698 -0.2004699726 0.0061410335
-0.2216027642 0.0630752501 -0.0420517861
-0.1884789828 0.0351636777 -0.0540705683
-0.1614724036 0.0228719719 -0.0247691741
-0.2347069459 0.0705782976 -0.0505128016
-0.2078671245 0.0536278592 -0.0390702470
0.1251379818 0.1919353189 0.5004041308
0.0393580591 0.1074476678 0.2609868962
-0.0719963690 0.0088747521 -0.0588738154
-0.0399157559 0.0553460007 0.1163131227
-0.0485773599 -0.0696265795 -0.2861721498
-0.0915633966 -0.0307051068 -0.2195726162
0.1949670744 0.2957493658 0.5317944585
-0.3347017024 0.1821326841 0.0555235519
-0.0481075680 0.0085548182 -0.0816667058
-0.4952359741 0.3224412981 0.1150368752
-0.0976425899 -0.0358054752 -0.2067604309
-0.0474598112 -0.0616787591 -0.0140604184
-0.0415721688 -0.0425042333 0.0704231921
-0.0416698784 -0.0558834214 0.0243465311
-0.0380225519 -0.0344992263 0.1091466644
-0.1204240167 -0.1404195831 -0.5174259057
-0.0691450357 -0.0765412987 -0.1344986220
-0.0912857143 -0.1102459754 -0.3207339420
-0.1457278954 -0.1355313695 -0.9201008347
-0.0409253549 -0.1180419739 -0.7824729128
-0.0631432735 -0.0288044901 0.0707155941
0.0065107316 -0.0955437215 -0.3664788178
-0.1750474236 -0.1543558367 -0.8237286110
0.0472578540 0.1231198512 0.4167534348
0.1637434366 0.2526006186 0.4988069917
0.0048172076 -0.1053882762 -0.1399800529
0.3176382005 -0.2425328278 -0.0303982266
0.1731198167 -0.1712713991 -0.0800986076
0.1929015353 0.2929963387 0.5632286202
0.0672312447 0.0079778418 0.3556349498
-0.0520655239 0.0076137465 -0.0934988814
-0.1368978452 -0.0457900090 -0.0065176060
-0.0073125128 -0.1154324766 -0.4211911833
-0.0755420038 -0.0362485697 -0.0653547191
-0.0754064044 -0.0462027113 -0.0816295307
-0.0816136463 -0.0553996377 -0.1313310202
-0.0849981615 -0.0534514195 -0.1464129364
-0.1167288042 -0.1015797016 -0.4023076065
-0.0399659508 0.0022047163 0.1949266946
-0.0002141092 -0.0086117410 0.1252986911
0.1232555841 0.3059423479 0.5508929655
0.0754048039 0.3430625421 0.6007272248
0.0507817198 0.3568589261 0.5974389335
0.1575027094 0.2814217013 0.5263846362
0.1355000079 0.2959147800 0.5351799251
0.1163507374 0.3116991826 0.5602993318
0.0735605380 0.3415160363 0.5863140623
0.1677634857 0.2851268192 0.5794286207
-0.0278136792 0.0439254561 0.2989623562
-0.1280365127 -0.0257982711 -0.0204778400
-0.1637741453 -0.1113704729 -0.7786467652
0.1020819210 0.0152794898 0.3456307965
-0.0234151050 0.0868211225 0.3215077804
0.2071029594 -0.1851162651 -0.0415488979
0.0481053611 0.0177092656 -0.0634579110
0.0283120731 -0.1292475833 -0.1443005659
0.0891291500 -0.1539119918 -0.1026945632
0.0989729189 -0.1593812408 -0.1071281801
0.1813352566 0.2739517072 0.4859279941
-0.0127585492 -0.1431574233 -0.0113544621
0.3709511102 -0.2563677467 0.0657010178
-0.0869850527 -0.0118651317 -0.0696078509
-0.0425839774 0.0151044642 -0.0420422365
0.2752233652 -0.2164807275 0.0526932266
-0.1667166447 -0.1612990565 -0.7777204984
0.0870477951 0.0679438662 0.5078399064
-0.0940186479 -0.0209894987 -0.1294818793
0.0488586719 -0.0203572176 -0.1030002268
-0.0857926483 -0.0146022025 -0.0434157308
-0.1275650518 -0.0652120598 -0.4818000569
0.0193102226 -0.1319023748 -0.0356917382
-0.4366949314 0.2724592057 0.0988736978
-0.1510356146 -0.1947085375 -0.8013354038
0.0044173696 -0.1242001182 -0.0160524619
-0.1151537300 -0.0515678041 -0.0210763986
0.0185542189 -0.0812284264 0.0347259687
0.0155392416 -0.0901007690 -0.1099076798
-0.5015923458 0.3160749157 0.0769051014
-0.0416524005 -0.0833831801 -0.0915646965
-0.0129878512 -0.0500583924 0.1095024951
-0.0139677349 -0.0308240566 0.1942130680
-0.0078688563 -0.0389811556 0.1684087256
-0.0475751821 -0.0918138654 -0.1399642183
-0.0565938079 -0.1005507041 -0.1954419886
-0.0813489629 -0.1364827938 -0.4012251914
-0.0123271016 0.0888796262 0.2760261011
0.0452955901 0.0498979353 0.2627409400
0.0987572874 0.0926616718 0.3981137752
-0.0184476257 0.0855429411 0.2727706552
0.0795698943 0.0637466842 0.4109244994
0.1132642732 0.0416398661 0.4066614722
0.1073768424 0.0431468946 0.3914323571
0.0875258663 0.0493800829 0.3478214272
-0.1073246793 -0.0540806567 -0.1972797175
0.0480978476 -0.1038331316 0.0180058176
0.0906591342 -0.1219821030 0.0365491098
-0.1405802713 -0.1017988851 -0.8656878895
0.0427156455 0.0592589191 0.3048449761
0.2018947701 -0.1809820174 0.0133340136
-0.0346873074 0.0162990170 0.1038611987
-0.1795406748 -0.1572616077 -0.8640347244
0.0812164904 0.1012591794 0.4515437279
-0.0615477883 -0.0341881514 -0.2745561789
0.0884882240 0.1298131260 0.3698519692
-0.2670830072 0.0948707869 -0.0775419693
-0.0511191322 -0.0826800325 -0.1053062333
-0.0839590478 -0.0603606580 -0.2632112522
-0.0068616987 -0.0490415001 -0.2062602148
0.1918349882 0.2911760113 0.5060010084
0.1576909679 0.0425725738 0.3260777149
0.0244181619 -0.0837456865 0.0087136436
0.0185869408 -0.1395823857 0.0027447403
-0.1206496779 -0.0527540265 -0.5740209281
0.0342714650 0.0616975909 0.0274674526
0.0101101865 0.0417096625 -0.1056099461
0.0549126896 0.0908507257 0.1953942223
0.0420584542 0.0857345955 0.1494227754
-0.0507718622 -0.0562078543 -0.6546249252
0.0053867085 0.0327467053 -0.1543601428
0.0272115797 0.0620492925 0.0164091977
0.0977412423 0.1137856994 0.4862876639
-0.0468826167 0.0456692276 0.0309171814
0.0355460836 0.0212250437 0.4038616774
0.0186031324 -0.1166915504 -0.1019631760
0.0746682957 0.0415324025 0.4478981395
-0.3466668914 0.1934817510 0.0453366253
0.0376437143 -0.0558146870 -0.1113716295
-0.0111158188 -0.0872160833 0.0230742109
-0.1284735130 -0.0639501407 -0.5136381850
-0.0934827394 -0.0168890153 -0.2513473786
-0.0111615578 0.1325951890 0.2768722249
-0.0041921983 0.1395291510 0.4027086983
-0.0918345069 -0.0208300022 -0.4317543542
-0.1492982920 -0.0966219505 -0.8341466769
0.4633031778 -0.3095361692 0.0552378211
0.1410918065 0.2097531471 0.5668503680
-0.0115646007 0.0204601372 0.0564656951
-0.0969896895 -0.1192404416 -0.3697999111
-0.1356337259 -0.1633938941 -0.6449022067
-0.1247638958 -0.1717443579 -0.6385282902
-0.0694726161 -0.0942305856 -0.1959784000
-0.0572629138 -0.0814797166 -0.1131819309
-0.0631390961 -0.0811273652 -0.1308611684
-0.1261739014 -0.1670192011 -0.6268900418
0.1478475952 0.0464384148 0.3238133478
0.0878080863 0.1263607577 0.6217115405
-0.0299989042 0.0944637901 0.3654131459
-0.0242749067 0.0976445277 0.2319444292
-0.0199979376 0.0536955179 0.3346026777
0.0631375074 -0.0215961339 0.1711244647
0.0714995262 -0.0114514192 0.1755111747
-0.0886081548 -0.0557318324 -0.0471177503
-0.1134085427 -0.0315159275 -0.0939674618
-0.1213987819 -0.0530737867 -0.5625027517
0.0094835505 0.1059502854 0.3174564831
-0.2011527428 0.0668730829 -0.0656445326
-0.1748434469 0.0474465782 -0.0698682047
-0.1064871004 -0.0076021084 -0.1268831065
-0.1307222626 0.0128574705 -0.0970180936
-0.2113115936 0.0744162834 -0.0634401766
-0.1417575833 0.0216335531 -0.0891205367
-0.1410768977 0.0202656123 -0.0977155072
-0.0505132468 0.1623858405 0.3469532628
0.1461916871 -0.0401395096 0.2767627184
0.1185460058 -0.0413750154 0.2346621455
0.2849885863 -0.2384941988 -0.0297768471
0.3899988001 -0.2810727482 0.0180042602
0.0855228685 0.3246280408 0.5452256649
-0.0215550060 0.0994134538 0.3713284571
-0.0381287530 -0.1022498350 -0.0952519559
-0.3860351662 0.2121652719 0.0003038681
-0.0552378231 -0.0506106075 0.0474995102
-0.0260742001 0.0253231536 0.2955875402
-0.0788798767 -0.0068366772 -0.0871391626
-0.0449759535 0.0336141636 0.1842184585
-0.0719137935 0.0022317350 -0.0327452165
-0.0540056958 0.0175855889 -0.0440820518
0.0377620350 -0.0571220765 0.0156958505
0.0502208864 0.0912240580 0.3285726425
0.2105208547 -0.1978458192 -0.0108930720
0.1910517973 -0.1819962268 0.0129033236
0.1109522947 0.0369994877 0.2778058683
-0.0315469722 -0.1283320749 -0.7251402591
0.0800110633 -0.1148759891 0.0243439380
0.0652360480 -0.1065996749 0.0236571060
0.1437440086 0.0405785913 0.3813050511
0.0973313769 -0.1244855105 0.0222048421
0.0436533229 -0.0946172278 0.0254960524
0.1574601511 0.2220049217 0.5053828893
-0.0246889913 -0.0223533221 -0.1454962346
0.1627814021 0.0116486050 0.2383808793
0.2732240123 0.2204561489 0.6143263008
0.2176220933 0.2552078577 0.5996330804
0.2894588545 0.2083503708 0.6120447315
-0.0339301987 0.1391876253 0.2279803445
-0.0466802979 -0.1273175051 -0.8224640341
0.1268349047 0.1897655476 0.5440638864
0.0310927893 -0.1088788889 -0.0392744853
-0.0306572755 -0.1306926568 -0.3815694558
-0.0329141870 -0.1287901991 -0.3579461818
-0.0274966582 -0.1184040656 -0.2890104658
-0.0789858172 -0.1884652093 -0.7038397340
-0.0375468811 -0.1371490052 -0.4125039481
-0.0835130417 -0.1941590277 -0.7364799398
-0.0375757420 -0.1339908082 -0.3859951687
-0.0500525010 -0.1516958033 -0.4925527453
-0.0224974413 -0.1185660737 -0.3072760677
-0.4433525381 0.2608202344 0.0532864934
0.0534621384 0.0267224677 0.4211181491
-0.1671874855 -0.1169915044 -0.8042998589
-0.0970863733 -0.0380018862 -0.0692493962
0.0631729863 0.0436939148 0.4628119850
-0.1202839732 -0.0592998263 -0.0300972112
-0.0980090189 -0.1566655489 -0.5216625502
0.0200154403 -0.1197939151 -0.0114955281
0.1417291476 0.2048859288 0.6000005677
0.1003950825 0.1313915506 0.4392882542
-0.0200459811 -0.0069970079 -0.0732661414
-0.0998379518 -0.0698868669 -0.7832106176
-0.5045430568 0.3335488967 0.1386521540
-0.0959585996 -0.0462037431 -0.6337308234
-0.3625620076 0.2068966516 0.0666252385
0.1047582937 0.1401731987 0.4926132758
0.1294101436 0.0363205193 0.3836819413
-0.1098540719 -0.0513977193 -0.3187296233
-0.1000407818 -0.0396326568 -0.2404158214
-0.1260561286 -0.0739756777 -0.4414473605
-0.1573021972 -0.1169506242 -0.6794266077
0.1123984375 -0.1389171309 -0.1025825060
0.0659972585 -0.1132222190 -0.1059666599
0.0917771245 -0.1246218397 -0.0724242333
0.0932836028 -0.1271940209 -0.0914769102
0.0496802755 -0.1051224827 -0.1175603946
0.5278349836 -0.3231936532 0.1327934378
-0.0556045976 0.0347037912 0.0257788957
-0.0029666883 -0.1280825648 -0.0043410717
-0.0244988953 0.0244933868 0.0399067124
0.1672106918 0.2480927111 0.5952338507
-0.1691023888 0.0478220982 0.0147892034
-0.1471789500 -0.0062714943 -0.0947094053
0.0043692458 -0.0154837217 -0.3368171216
-0.0129921025 -0.0392118073 -0.4730122881
-0.0376382768 0.0787766881 0.2361738997
0.0295924698 -0.0249949058 -0.2378085643
0.0375338702 -0.0164522406 -0.1796816369
0.0215042507 -0.0323585423 -0.2946030062
0.0687732133 0.0333252574 0.0762035366
0.0610424872 0.0252109471 0.0200638850
0.0486339293 0.0096904490 -0.0743131725
0.4871900785 -0.3130035029 0.0649496576
-0.0811035823 -0.0043128861 -0.0170467473
0.0390966542 -0.0248316214 0.2631072201
0.1737601956 0.0014777043 0.2867821104
-0.0462412791 0.1266245343 0.3906329282
-0.1615747654 0.0419011156 0.0264138325
-0.2315247069 0.0930508905 0.0238366569
0.1008958882 0.0258559476 0.2385472023
0.0556780380 0.3527711421 0.6044362953
0.1093906495 0.3190917414 0.5933416475
-0.0031599213 -0.0962166463 -0.2269652115
-0.0135544474 0.0681834327 0.3490246328
-0.1241895333 -0.1382186547 -0.5260951009
-0.1372631313 -0.1462684071 -0.6027265797
-0.1082020600 -0.1092746480 -0.3818713723
-0.1507084618 -0.1557405773 -0.6846648271
-0.0636105699 -0.0599789592 -0.0627548811
-0.1495005775 -0.1681345948 -0.7123783069
-0.1235824481 0.0146053758 0.0137748894
-0.1003096715 -0.1974328141 -0.9297232389
0.0214240717 -0.0805526417 0.0198476079
-0.0691212976 -0.1869042722 -0.8738490531
0.0248864183 -0.1253980736 -0.1280329986
0.1185822220 -0.1664318439 -0.0869399177
0.0328212459 0.1030043964 0.4875374901
0.0995727913 -0.0277635138 0.2867174682
-0.1319446027 -0.1721346299 -0.6628836871
-0.0954021371 -0.1319216934 -0.4080657174
-0.0810149854 -0.1035521406 -0.2648780901
-0.1439267501 -0.1715887739 -0.6994953492
-0.1045618777 -0.1327052269 -0.4401787294
-0.1090175425 -0.1433995500 -0.4910283625
-0.1314217553 -0.1794885934 -0.6863500209
-0.1352860198 -0.1806280773 -0.7026393221
0.1423352419 0.0500958005 0.3606124122
-0.0773623655 -0.0941199844 -0.1761907215
-0.1794633195 -0.1538425605 -0.8963052181
0.0458236234 0.1107466046 0.2892775499
0.0312942366 -0.1193919611 -0.0225906279
0.1688855952 0.2430696297 0.5857616695
-0.0100445983 -0.1168326945 -0.1816929301
0.0357291100 -0.1174652802 -0.0651583622
-0.0908807270 -0.0124433716 -0.2416051726
-0.0219222868 -0.0886924442 -0.1006063201
0.0002149462 -0.0599855693 0.0674506627
-0.0459259522 -0.1128536922 -0.2456772497
-0.0474554586 -0.1185011638 -0.2768815627
-0.0058506923 -0.0661726022 0.0303837600
-0.0527015473 -0.1217047332 -0.2974926113
0.0008967050 -0.0400603529 0.1745627942
0.1712907100 0.2657648170 0.5620557368
0.1056643368 0.1406510572 0.4489058679
-0.1258749925 -0.0198636041 -0.0846779373
-0.0734321230 -0.0248747293 -0.5145241977
-0.0600258073 -0.0012594531 -0.3726072173
-0.0180110584 0.0554074637 -0.0405001270
-0.0673897385 -0.0097193742 -0.4212210314
-0.1076253066 -0.0484734293 -0.1906685507
0.1113555931 0.0119455608 0.3786040629
0.0682270429 -0.0058250401 0.0632481498
-0.0862311771 -0.0062526848 -0.2058473189
0.0568342142 0.0830157874 0.5479801191
0.0808772091 0.0813064546 0.2433068883
-0.2682200653 0.1246352773 0.0517711660
-0.0374818758 -0.0902586946 -0.2736676712
-0.0804797460 -0.0528683289 -0.0093645585
0.1193305542 0.1688922412 0.5716547413
0.0108376298 -0.0845866141 0.0154462947
0.1030249176 0.1543411488 0.5197690498
0.0974950013 0.0900997115 0.3769444711
0.0370856802 -0.0570381108 -0.0961601130
-0.0200328015 -0.1319815770 -0.5577460753
-0.0425486492 -0.0870895171 -0.7248967136
-0.2550047423 0.1135406454 0.0492131583
0.0640177360 0.0897448647 0.5732468485
-0.1597228070 -0.1968386150 -0.8363458770
-0.1626853603 -0.2402624437 -0.8759869401
-0.0711174098 -0.1675765261 -0.5697845721
-0.0372688543 -0.1110489936 -0.2315141820
-0.0287247427 -0.1027715400 -0.1851016125
-0.0570644752 -0.1389521107 -0.3958720315
-0.0815641131 -0.1694214629 -0.5728108985
0.1079083144 0.0203476251 0.2446929956
0.2216790787 0.2424358750 0.5652857518
0.2739776180 0.2115512708 0.5862749191
0.2102645030 0.2460778046 0.5495765622
0.2979743902 0.1894189772 0.5671550428
0.2178038694 0.2356370845 0.5309939932
0.2686893574 0.2064919736 0.5545789473
0.0829263979 0.0050863892 0.2681592648
-0.0010462932 0.0775406772 0.3875606208
-0.0242536029 -0.0554938739 -0.2752989015
-0.0935972419 -0.0231476493 -0.1878817969
-0.1272990137 -0.0722762808 -0.0117316350
0.0328352148 -0.0626901089 -0.1434504966
0.0590471529 0.0979750443 0.2348319150
0.0024237562 -0.1179606669 -0.1861461751
-0.1345117526 -0.1133553292 -0.8924829593
-0.0806939227 -0.1581355009 -0.9013276565
-0.1185424074 -0.0394677430 -0.1816263166
-0.1889027261 -0.2413094836 -0.8666229458
0.1565526377 -0.1596880159 -0.0582706677
0.1423837620 -0.1515919264 -0.0563878042
0.1034192678 -0.1297831250 -0.0572924437
0.1454269741 -0.1519856187 -0.0410969098
0.0976106744 0.1268405079 0.4445052193
-0.0581094803 0.1561798528 0.2854075004
-0.0716414569 -0.0869986785 -0.1191274788
0.1681693710 -0.0117868917 0.2499294099
0.0172442894 0.0059876507 0.0715789640
0.1976592164 -0.1947973321 -0.0271001838
0.1825208524 -0.1842662920 -0.0162291688
-0.1043020042 -0.0434837084 -0.5885327810
-0.0756719828 -0.0065083954 -0.3744928349
-0.0428459036 0.0351813617 -0.1349705903
-0.0648489021 0.0082725914 -0.2867573674
0.0964668302 0.0856330365 0.5338018566
-0.0581545024 -0.0291350851 -0.2562559516
0.1151769807 0.0394161382 0.3514556505
-0.0925576474 -0.0291518492 -0.0279491840
0.0132819186 -0.0823875168 -0.0918700352
0.1394028689 0.0404011167 0.2738067731
0.1849256338 -0.1731788938 0.0147943214
-0.1283298916 -0.1933337144 -0.9679297365
0.1000650151 0.0376570440 0.3859297780
0.0892658506 0.0579408103 0.4319248068
0.1116946904 0.0442661620 0.4337601713
0.0853868445 0.0415254688 0.3673765771
0.1021549172 0.0472866833 0.4234164461
0.0835012008 0.0506640829 0.3945112565
0.1507060075 0.0497362940 0.3794887808
0.3225493309 -0.2531890548 -0.0095571475
0.1862835394 -0.1735236938 0.0228613192
0.1511315543 -0.1544523046 0.0230377957
-0.0462972136 -0.1478522776 -0.8266384548
0.1071666589 0.3079022400 0.5397008775
0.0245361201 -0.0665826745 -0.0413325971
-0.0133797810 -0.1215317687 -0.3976647282
-0.0013113882 -0.1044670186 -0.2897319649
-0.1283718834 -0.0995307839 -0.8719733035
-0.0101961694 -0.0915165283 -0.5568955638
-0.0291723118 -0.0477543851 -0.2570884360
-0.0458572908 0.0111209860 0.0926930070
-0.1880311522 0.0369835883 -0.0460674512
-0.1720093408 0.0288980820 -0.0316238479
-0.2127697669 0.0559160347 -0.0441978793
-0.1638920400 0.0196029831 -0.0437716156
-0.1854111870 0.0372690623 -0.0376184780
0.0248722871 -0.0460297851 -0.1078562940
0.0994374713 0.1420274929 0.3949020617
-0.0270570848 -0.1356317715 -0.4511939499
-0.0478255006 -0.1653716755 -0.6416200949
-0.0331369698 -0.1453847768 -0.5206606180
-0.0536134016 -0.1035595437 -0.8131896805
0.0197030026 0.0509433482 0.4344419749
-0.0470947615 -0.0643592231 0.0257482554
-0.3078269599 0.1585298275 0.0534213289
-0.3414671392 0.1891855558 0.0781782491
-0.2797906475 0.1352379736 0.0634042090
0.0040559937 -0.0822280458 -0.0915644552
0.0101348543 -0.0739703560 -0.0427127008
0.0156941977 -0.0747629019 -0.0682603440
0.0177811520 -0.0722937445 -0.0544942615
-0.0258513178 -0.1248203705 -0.3484391062
0.0326858033 -0.0395988491 0.1698972758
0.0311595021 -0.0509737593 0.0795337782
0.0015958079 -0.0853211319 -0.1091940799
-0.0062437531 0.1266461978 0.2943028215
-0.0685553782 -0.0617237630 -0.2849288682
0.1572605305 -0.1619239433 0.0207485052
0.0759060739 -0.1185809631 0.0189020797
0.0994822277 0.0633208277 0.3264639996
0.0725317524 0.1155193800 0.4464553732
-0.0194892024 0.0731491713 0.1060781066
-0.0140676997 0.1576298537 0.4007971893
-0.0114413344 0.1089998948 0.2484540211
0.0610047037 0.1152241145 0.5699339903
-0.0261623720 0.0426909776 -0.1161166347
-0.1773177568 0.0125430751 -0.1194129882
-0.2417712508 0.0693796047 -0.0857677466
0.0259685940 -0.0734035449 -0.1139913571
0.0946638858 0.0300895470 0.3191236268
0.0160758351 -0.0679802512 -0.3541688798
-0.0056216896 0.3935017423 0.6254531888
-0.0127169041 -0.1078214845 -0.0798435463
0.1994451674 0.2926548816 0.6361321004
0.1602974636 -0.0294379444 0.2914250257
0.1155301327 -0.0160717899 0.2601970044
0.0287058041 0.0522973519 0.4532688890
-0.0655184046 0.0176117544 -0.0105716591
0.0185649449 -0.0736947591 0.0533079167
0.1097981489 0.0371659592 0.3207070837
0.0169785258 -0.0166376697 -0.0184499198
0.0205320711 -0.0344658489 -0.0799703298
-0.3121475491 0.1511762130 0.0314464084
-0.3382288038 0.1708901236 0.0288110605
-0.2882395646 0.1290732254 0.0185842134
-0.2838464579 0.1234289965 0.0102045481
-0.3775100966 0.2031143575 0.0344851226
0.0685971158 0.1098527423 0.3222047092
-0.0073098783 0.0815747161 0.1347435742
0.1610726027 0.0340826777 0.2962335835
-0.0567985641 0.0325583477 -0.0442369988
-0.0135856913 -0.0037820031 0.2853211900
0.2020867411 -0.1867327370 -0.0770575838
-0.0126180569 -0.1145672512 -0.5575806495
0.0594445827 0.1017892990 0.3795796502
0.1808895470 -0.1756546352 -0.0785767479
0.1241958875 -0.1465527763 -0.1062842186
-0.0640481574 -0.0724015658 -0.2785095783
0.0134769377 0.0657162163 0.2940919783
0.0136027211 0.0755703174 0.3280185150
0.0045376048 0.0770476827 0.3134348744
0.0011547788 0.0821257510 0.3234216445
-0.0001692429 0.0778253574 0.3058480708
0.0424414143 0.0717543256 0.3775151400
-0.0104037620 0.0828916253 0.3010194374
-0.1422011363 0.0146888324 -0.1419281702
0.1648847532 0.2337486210 0.4928432877
-0.2510132310 0.1102045571 0.0008022316
0.1151374759 0.1788624426 0.4482869162
0.0435533901 -0.1197159186 -0.1748776542
-0.1735907092 -0.1862445038 -0.9204567184
0.0911100681 0.0422115391 0.2260260398
0.0091140587 0.1037516456 0.3566793483
0.2957707650 0.2071208553 0.6228304101
-0.1035526882 -0.0551354594 -0.6852090828
0.0864027554 0.1077042494 0.3972347888
0.1750545420 0.2720783344 0.6128453327
0.1463934036 0.2048455878 0.4845276346
0.0586951594 -0.1184736157 -0.1575304820
0.0043509939 -0.1383559369 -0.0096447131
0.0455439437 -0.0311973178 0.0338839113
-0.0643722933 0.1170481294 0.3849786516
0.2086902544 0.3069880687 0.6382366822
0.0222927218 -0.0553143396 -0.1434762733
-0.1896157381 0.0583926633 -0.0669140997
-0.1641461323 0.0367625286 -0.0994458634
-0.1167325350 0.0000386950 -0.1243957545
-0.1138165426 0.0036264251 -0.0673784363
-0.1091355814 -0.0042558442 -0.1123813589
-0.1679418467 0.0403522859 -0.0908261708
-0.0295995354 0.0742378536 0.2445597834
-0.0439655182 -0.1111121475 -0.1448772107
0.1465952711 0.2088863745 0.4553540458
0.1622207439 -0.1693570626 -0.1011309823
0.1112832312 0.1732193560 0.4556120913
0.0913465982 -0.0192637189 0.2308645192
-0.1352407431 -0.0070119657 -0.0631146767
-0.0688990218 0.0168801455 -0.1180546928
-0.1176642676 -0.0470362754 -0.4589485501
-0.0177529051 0.0745291800 0.3212861981
-0.0274163649 0.0312150603 0.0631549802
0.0329965694 -0.0172055106 0.0195457148
0.1074458433 -0.0229625007 0.2622473093
0.1685534055 0.2771978807 0.5386434183
0.1536591911 0.2891504939 0.5562116914
0.1660874355 0.2748738081 0.5180066023
0.0540236647 0.3577795059 0.6128220896
0.0564998786 0.3529572845 0.5943940342
0.1312899689 0.3031474800 0.5612546527
0.1006616841 -0.1553256004 -0.1411008176
-0.1753256094 -0.1639366255 -0.8313452404
0.0009100737 -0.0069915567 -0.0206628962
0.0939364646 0.1438941591 0.4898962897
-0.1129739856 -0.0556160934 -0.6611651699
-0.0322373389 0.0243596497 0.0984875291
0.0943620648 0.0288361788 0.3041151332
-0.0301576963 -0.0304050773 -0.1910440462
0.0862163123 0.1125681034 0.3453854844
-0.4131450313 0.2449996360 0.0356373634
0.0604240933 -0.0222526062 0.0299611627
-0.0459359673 -0.0396369830 -0.2670775297
-0.0867216464 -0.1688579693 -0.9162414410
0.0784880517 0.1109178074 0.3586803947
-0.0045813167 -0.0980022045 -0.5078966730
-0.0489439791 -0.0677630416 0.0138348167
0.0126841170 -0.0530452733 0.0910917466
-0.0904588561 -0.0159469794 -0.1128411509
0.1899446703 0.2896949863 0.5869499525
-0.1781206439 0.0469824718 -0.0978245865
-0.2210290474 0.0802773544 -0.0743382026
-0.0651690938 -0.0045197378 0.0738153565
0.0590844510 -0.0223660756 0.0025699355
-0.0850369943 -0.0557181037 -0.0339546901
-0.1197936375 -0.0656971151 -0.3931096535
-0.1169671931 -0.0642893574 -0.3663379180
-0.1208831694 -0.0667942988 -0.4021930234
-0.1653962712 -0.1243280277 -0.7490312134
-0.1693861027 0.0311476416 -0.1367539851
-0.1027562027 -0.1737302657 -0.9393994995
-0.1056094762 -0.2049186938 -0.7828329379
0.0939270180 0.0387297086 0.2450879573
0.0312014587 -0.0948900794 0.0175410656
-0.0226662121 -0.1262538458 -0.6385603274
0.0554989149 -0.0324975389 0.0291741833
0.0567152858 0.0779068099 0.4083533340
-0.4894225736 0.3202390905 0.1411407129
-0.3196533085 0.1500973303 0.0051385120
-0.3529832068 0.1820768701 0.0275115452
-0.3047055247 0.1418307337 0.0180832970
-0.2901178163 0.1229619881 -0.0100398744
-0.3035926117 0.1359418117 -0.0008420630
0.0438299251 -0.0218900519 0.0486662292
-0.0584983068 -0.0055722282 -0.1635336358
0.0608380049 0.0303473679 0.4276499965
0.0692152912 0.0169506249 0.3804293603
0.0663169699 -0.1405619697 -0.0952069266
0.0270137825 -0.1246731820 -0.1183088038
-0.4285752552 0.2651698359 0.0883919658
0.1686184555 0.0207969020 0.2827053817
0.1536928124 0.2164105442 0.5206919064
0.1035866187 0.0838980264 0.4537247272
0.0893161695 0.0316600995 0.3717397147
-0.0737636238 -0.0799155119 -0.8023128772
-0.4037966188 0.2423504430 0.1099433647
-0.0344076328 -0.1509644006 -0.6693327048
-0.0283620472 0.1309919168 0.2544987678
0.0249089299 -0.0862949666 -0.0634193646
0.0358853379 0.1144256803 0.3193545457
-0.0073351343 0.1362977596 0.3098598491
-0.1217476919 -0.1806902321 -0.6720649569
-0.0839474490 -0.1263486970 -0.3603096431
-0.1211904009 -0.1687875706 -0.6175792763
-0.1311825496 -0.1882476016 -0.7229179671
-0.1211957076 -0.1894641511 -0.7105759671
-0.1278659010 -0.0349743917 -0.0315198865
-0.0954979797 -0.0194455647 -0.2677682592
0.1065114990 0.0236591589 0.2895252680
0.0645835416 -0.0099395219 0.2859697048
-0.1351602990 -0.2180349436 -0.8714069917
-0.0741201555 0.0090558001 -0.1053464699
0.0909651127 0.0663353693 0.2575585012
-0.0230743861 -0.1354293961 -0.4882130648
0.1640548054 -0.0255529915 0.2567565582
0.1461735193 0.2210157017 0.5453494078
-0.0829067104 -0.0612541964 -0.7258440508
0.0487560007 0.1013690712 0.2317254051
0.0756984963 0.3451621876 0.6127161541
-0.0937056382 -0.2013154277 -0.7696361078
-0.0064436479 -0.1091129809 -0.0029154910
-0.2511278517 0.0948456202 -0.0044466952
-0.2686226150 0.0996462923 -0.0364565790
-0.0168901895 -0.0965022491 -0.6071822726
0.2009404926 -0.1801549397 0.0048493752
0.0129622059 -0.1243254644 -0.0283602007
-0.0326754058 -0.1462906065 -0.5369963067
0.1930354251 0.2747266574 0.6058211772
0.2035201376 0.2632339145 0.5838067708
0.2306195965 0.2495465397 0.6095567832
0.1016869088 0.0645820388 0.3733551695
0.4571029513 -0.3060769531 0.0586592857
0.4321198910 -0.2966156209 0.0445991738
-0.1439091660 -0.0154825577 -0.1277022279
-0.2020401309 0.0380643951 -0.0825359063
-0.2036737271 0.0374312639 -0.0950191326
-0.0353644891 0.0613094353 0.1492608183
-0.2845933279 0.1355915134 -0.0195834223
-0.3767520820 0.2144169316 0.0224733606
-0.3144016634 0.1632913053 0.0155542804
-0.3079810691 0.1580027756 0.0146884889
-0.2140515129 0.0452434285 -0.0982183754
-0.2289636170 0.0583329450 -0.0909207163
-0.0230742110 0.0767812603 0.1926075291
0.1236398489 0.0432006488 0.3763802962
-0.1009221896 -0.0356002878 -0.5336963162
0.0688102460 0.1047435366 0.3068329393
0.0092393617 -0.1543539554 -0.0305765136
-0.0715551925 0.0748525301 0.2712449433
-0.0224903927 -0.0217255142 -0.4465615352
-0.0396949034 -0.0444263943 -0.5794199468
0.0271722546 0.0389951339 -0.0795408746
-0.0412755542 -0.0463320149 -0.5910583129
-0.0230816992 -0.0317146870 -0.4826911175
-0.0297372629 -0.0384739187 -0.5271055432
0.0161070408 0.0295412260 -0.1474143776
-0.1090815414 -0.2073300005 -0.9315721907
0.0034100728 -0.0112914968 -0.0313763729
-0.0060695162 -0.0558095738 0.0850413899
-0.0896229775 -0.0850128008 -0.2094270858
0.1509571498 0.2329310728 0.4943394376
-0.0884973885 0.1237697288 0.2961550704
0.2396195511 -0.1986335787 0.0293847890
-0.4645889390 0.2910428036 0.0713118601
-0.4202216175 0.2533013923 0.0530053564
0.0321423266 -0.0900690554 0.0379811526
-0.0647222250 0.0151763791 -0.2200484075
0.1686761130 0.0366262378 0.3515953783
0.1931204712 0.2751275626 0.6671725953
-0.0112943692 0.1183607698 0.2526648638
0.0516289119 -0.0306643757 0.1696365075
0.0835373388 0.0972911186 0.3148835072
0.1426855598 0.2162818234 0.5379375421
0.2561824887 0.2280450527 0.5996037271
0.2518665043 0.2347397911 0.6117474737
0.2435210802 0.2379297525 0.6028451172
0.0625125347 -0.0217124276 0.0682951552
0.0780616992 -0.0027409419 0.2042770844
0.0019199071 -0.0901838549 -0.4560772794
0.0457338383 0.0852346910 0.2815444472
0.0836038754 0.0096182695 0.2989212913
0.1287704479 0.1779131239 0.5082789321
0.0259444904 -0.0736807009 0.0310806814
0.0256221340 0.0635214951 0.3129087582
0.0196385060 0.0711275217 0.3259537269
-0.0175690730 0.0823877333 0.2836858576
0.0360843750 0.0686990755 0.3533164203
0.0364458072 0.0760683514 0.3792634992
0.0488748072 0.0742551609 0.4000660998
-0.1219881014 -0.0178802341 -0.1812323289
0.0848428782 0.0015139630 0.2384013393
0.0749616112 -0.0071025867 0.1875338477
0.1030741378 0.0949938909 0.4609700344
-0.0350772462 -0.1129885359 -0.7418899774
-0.0082167164 -0.0431222594 -0.1862233599
0.0278767727 0.1143000246 0.3459570537
-0.2702704785 0.1224037927 -0.0351931123
0.1097180455 0.1629764254 0.5342103548
-0.0838059939 -0.0061421672 -0.1562013842
0.0418145460 -0.0180079071 0.2902682636
0.1014986096 -0.0179928388 0.2621752092
-0.1363648054 -0.1443068479 -0.9343071137
-0.1294277420 -0.0517630398 -0.0285062439
0.1719019210 0.2456002644 0.4900464830
0.0017756437 0.0855987324 0.3893012207
0.1037728294 -0.1414751642 -0.1349811852
0.1464547495 -0.1628133032 -0.1127157895
0.2079066393 -0.1850869753 0.0367766296
-0.0850910792 -0.0928587402 -0.8514259803
-0.1370490821 -0.2144539717 -0.9442034746
-0.1605845182 -0.1754170607 -0.7784994637
-0.4084494024 0.2378600148 0.0219008734
0.0344768285 0.1011817056 0.4959204282
0.0301776507 -0.0264698305 0.1021303515
0.1063970872 0.1508535803 0.5721033796
0.0863686989 0.1068201865 0.3747281834
-0.0904567626 -0.0377657031 -0.2348025650
-0.0641224840 -0.0835546199 -0.0866250301
-0.0778366895 -0.0756026089 -0.0896522960
-0.0175520907 0.0989641760 0.3588872051
-0.1433842411 -0.0069790182 -0.0859783125
-0.1973154433 0.0389260088 -0.0646015438
-0.1483845508 0.0017096927 -0.0674255647
0.1217668707 -0.0244336566 0.3412148374
-0.1708067205 -0.1281434476 -0.8009779496
0.1256455687 -0.0108590264 0.2509413599
0.0908756000 0.0372929093 0.3647470889
0.0743597514 0.0548800724 0.3890426533
0.0909741612 0.0237012400 0.3185255767
0.0964558055 0.0457409511 0.4057380635
0.1027958895 0.0217603068 0.3375406543
0.1085290899 0.0353667720 0.3964654504
0.0146372705 -0.0919121383 -0.0490014295
-0.0488333339 -0.1122632050 -0.1995674394
0.1625865617 0.0416083656 0.3452654371
0.0009360338 -0.1021926833 -0.0607684051
0.0153639584 -0.0546656698 -0.1691640114
0.1790051844 0.2767977842 0.6258324863
0.0184262884 -0.0853525167 -0.1176082775
-0.0228845270 -0.0734936975 -0.6056611122
0.1255715135 -0.0491305697 0.2450984401
-0.1476884131 -0.0599085873 -0.0154473467
0.0218120865 -0.0578544106 -0.3126743760
-0.0239274191 0.1272290327 0.2265414496
-0.1058112234 -0.0608580848 -0.0132714836
0.0840317067 0.1269483071 0.4933566854
-0.4083821435 0.2452092270 0.0609228040
-0.3559310009 0.1995452207 0.0364547841
-0.3981247592 0.2360516281 0.0547145184
-0.0108041669 -0.1151583342 -0.5329263190
0.0121820507 -0.0254000123 0.1170593810
0.0497108487 0.0227795473 0.4113040220
-0.2294739671 0.0836252947 -0.0868452626
0.0166369852 -0.1096076441 -0.0736614021
0.0122372025 0.1063187489 0.2988522674
-0.1093254802 -0.0472384702 -0.1525739472
0.3370614023 0.1657149538 0.5768897764
0.2946229976 0.1904674676 0.5580688552
-0.0251762807 -0.0343098947 0.0942551403
-0.0671453920 -0.0980138699 -0.8384788439
0.0560144586 -0.0241804476 0.2124952085
0.0596911806 -0.0251356798 0.1649525418
-0.0979155795 -0.0814234474 -0.8324130567
-0.0298655813 0.1239413145 0.2231000306
0.0996481696 0.0523591563 0.3156265655
0.0893368277 0.0170878821 0.2792908720
-0.0341739538 -0.0769356172 0.0146026898
-0.2322787284 0.0751797838 -0.0260104997
-0.1462806266 0.0208593111 0.0104186060
-0.2165171909 0.0676809960 -0.0098349637
-0.2016485981 0.0543677074 -0.0185979371
-0.2213673837 0.0660832760 -0.0298276276
0.0184668694 -0.0008255963 0.0477371110
-0.0231975179 -0.0098699709 -0.0925524713
0.1489846993 -0.0095346871 0.2551699638
0.0145631559 -0.0924144545 -0.0819181067
0.1093331453 0.0262154898 0.3490732580
0.0537681004 0.0124228702 -0.0415736469
0.0825251169 0.0521865423 0.1837202684
0.0749972207 0.0335963437 0.1107400654
0.0333426496 -0.0239783537 -0.2155216525
0.0805628362 0.0434773987 0.1580153671
0.0670283422 0.0206969236 0.0449955637
0.0469008767 0.0031152758 -0.0949653322
0.0741404307 -0.0045495047 0.2753359858
0.0053096827 -0.0410277525 -0.1440081098
-0.4823259959 0.3100532372 0.1245002735
0.1844447130 -0.1892578445 -0.0971409965
-0.1467266951 -0.0961240617 -0.6120705067
-0.1216394180 -0.0661952550 -0.4115295616
-0.1533361687 -0.1027842156 -0.6677239785
0.0672122744 -0.0072584974 0.0557845035
-0.0182068493 0.0507908377 -0.0702443363
0.0256075688 0.0992147251 0.2067710546
-0.0138567195 0.0544636863 -0.0501525492
-0.0570630731 -0.0086361262 -0.4230426737
0.0393872296 -0.0334690739 -0.0132348780
0.0740232928 0.0533842604 0.3165963901
0.0579190476 0.0784963451 0.4174834910
0.0730230181 0.0649384192 0.3908415889
0.0572208723 0.0713899516 0.3661529093
0.0725741090 0.0512107456 0.2955640895
0.0493658450 0.0645256299 0.2855719876
-0.1310241428 -0.0479488988 0.0056722138
0.0279646024 0.1151953372 0.3850589947
-0.0445888035 -0.0120952756 -0.4377108556
0.0907648314 0.1221354765 0.4864106771
0.0707009943 0.0600744495 0.3477256988
0.0578281207 0.0573765521 0.2735392197
0.0546117055 0.0669524490 0.3246877361
0.0636795310 0.0772392557 0.4338402249
0.0738202860 0.0623546878 0.3766898306
0.0573743245 0.0756593833 0.3958706475
0.3634029908 0.1596621453 0.6234071308
0.2705206312 0.2106727563 0.5742812657
0.1830994848 0.2578312432 0.5231541979
0.2141189625 0.2520161479 0.5807089187
0.3118085587 0.1822672533 0.5763762124
0.2445268427 0.2219939643 0.5493574512
0.1932254215 0.2636207486 0.5697327701
0.0860256406 0.0029151210 0.2540514953
-0.0727127005 0.0078628473 -0.0661999797
0.0795709295 0.1211977146 0.3440690400
-0.0649522655 -0.1474257061 -0.8785800900
0.0536822491 -0.0150955703 -0.0661807470
0.1403346863 0.2169145246 0.4836603742
0.0092760532 -0.0831801649 -0.3933908929
-0.0534846488 0.1393446129 0.2379998136
0.1876954598 0.2741582327 0.5838144806
-0.2787963134 0.1085388121 -0.0317670542
-0.2630622835 0.1002689078 -0.0180775098
0.0156885086 -0.0094130361 0.0069068495
0.0957425500 0.0209353683 0.2337902009
-0.0784333065 -0.0292416517 -0.5385220120
-0.0129210938 0.0663544246 0.0263229214
-0.0283166274 0.0447340706 -0.1009309356
0.0055508494 0.1007399844 0.3419007724
0.0493777828 0.0851250960 0.4254438180
0.2371855892 -0.2048046675 0.0188182130
0.2697298741 -0.2284692382 -0.0125564457
0.3321610589 -0.2547819374 0.0102975199
0.1146137455 0.0242200825 0.2471447081
0.0101110170 -0.0954928591 -0.1677342952
-0.0194038477 0.1392978105 0.2611962731
0.4435771590 -0.2963062884 0.0726679751
0.4009827139 -0.2817746685 0.0444579858
-0.0185377639 -0.1250112256 -0.0019471317
0.0152860187 0.0664572972 0.2639728795
0.4750106450 -0.3031136689 0.0922489008
-0.1600557102 -0.1397308766 -0.9141209029
0.1302189675 0.2015244428 0.4614431174
-0.1141362252 -0.0101205524 -0.0155836794
-0.0957866027 -0.0816929473 -0.2009773591
-0.0706597585 0.0722667964 0.2620912429
0.1353301186 -0.0365869308 0.2580286048
0.0646390771 0.0085408980 0.0219263110
0.0286815157 -0.0443542313 -0.2580194566
0.0226009445 -0.0469753231 -0.3030288555
0.0439570716 -0.0189904188 -0.1380368696
0.1439849514 -0.0236317347 0.3551569927
-0.0607745149 -0.0989219545 -0.8260019408
0.1024206339 0.1026078234 0.4876466057
-0.0210476445 0.0725791973 0.1134820814
0.0195352138 -0.0797167553 -0.1978771542
0.1311243448 0.0101240475 0.3875627283
-0.0356654863 0.1629181231 0.3944026162
-0.0033556947 -0.0602128638 -0.2407567983
-0.0930792166 -0.0110637450 -0.0647442049
-0.1013836650 -0.0050138786 -0.0638345057
-0.2603030312 0.1175202904 0.0436359663
-0.0711080267 0.0139412393 -0.1370932072
-0.0735139778 -0.0947182841 -0.1605012900
0.0884516206 0.0196566160 0.2221191795
-0.1168979939 0.0080805159 0.0426288755
-0.2206780133 0.0860360327 0.0469752703
-0.3648353545 0.2090420533 0.0595744494
0.0254301139 -0.0753450911 -0.0876470248
0.0367795315 -0.0449151487 -0.0480979856
-0.0070191618 0.0916935676 0.2293466634
-0.0893834088 -0.0111537454 -0.0082854390
0.0528174053 -0.0354222415 0.0805316626
-0.0444609241 -0.0850576642 -0.2786145180
0.1004554351 0.0974724125 0.5476565791
-0.0273405829 0.0714062495 0.1757770071
0.0968165024 0.0823557898 0.3458223922
0.0703091541 -0.0002259726 0.0732430493
0.1406823030 0.2104979386 0.5572914668
-0.0416787153 0.0030777112 -0.0877121147
0.2057844813 0.3025836042 0.5859851028
-0.1245032236 -0.0664439875 -0.4411911350
-0.1387413432 -0.0089297430 -0.0801420197
-0.1708548884 -0.2474614051 -0.8695970216
0.1592750295 -0.0096702035 0.3853418980
0.1530031784 -0.0228617786 0.3494933191
0.0205728229 -0.0600719748 -0.1623442208
-0.0247449835 -0.1312861485 -0.6497791246
-0.1057500844 -0.0254396675 -0.0471499775
0.2648659415 0.2075784168 0.5477622828
-0.0382528365 0.0566389413 0.0701607889
0.0091067774 -0.0121205630 -0.0203356761
0.0025998264 -0.0039339212 -0.0043278536
0.0888912195 0.1147197497 0.6231077303
0.0754110226 0.3315307392 0.5509652009
0.0635728949 0.1058196985 0.4068229795
-0.0078048793 -0.0047803667 0.2956697591
-0.5197873643 0.3387658889 0.1143400477
-0.1077909936 -0.1662022357 -0.5819903829
-0.1309218749 -0.1967344356 -0.7606859510
-0.1136981381 -0.1610756706 -0.5695460746
-0.1191120164 -0.1660410052 -0.6015077819
0.0354071037 0.1089678978 0.2687903170
-0.2675933396 0.1183661144 -0.0506269959
-0.0577115318 -0.1810687561 -0.8134724291
0.2004891354 0.2841167402 0.6497490132
-0.1162448926 -0.2108145336 -0.8166059866
0.2827481477 -0.2237298684 0.0369366701
0.3920399667 -0.2764466974 0.0481815550
0.2521865586 -0.2087016326 0.0350746436
0.3754364953 -0.2637981010 0.0676004318
0.1960196930 0.2632213273 0.5571460704
0.1839009221 0.2651798133 0.5239332950
0.2624137917 0.2239481408 0.5910512509
0.2079506082 0.2501367549 0.5320420019
0.2824584745 0.2103869430 0.5925228271
0.2947866085 0.1990439604 0.5779903636
0.2016638376 0.2549761082 0.5346494911
0.2596321602 0.2208852669 0.5653654589
0.0810982595 0.1313923832 0.4076694955
0.0067463010 -0.0279704435 -0.3598065762
0.0216932944 -0.0006632715 -0.2242735252
0.0109906455 -0.0343764610 0.1101892538
0.1719835346 0.0312498559 0.3461227096
-0.0565851127 -0.0865783558 -0.2636392415
-0.2147134226 0.0583388746 -0.1161769544
0.0130648389 -0.0850792478 -0.3336544859
-0.1755347751 -0.1488993820 -0.9019953380
0.3091146518 -0.2473965692 -0.0314185315
0.0166049502 -0.0248588776 0.2662081676
0.0819537899 0.0098193403 0.1745319032
-0.0198879810 -0.0391775377 -0.1999550082
0.4762194582 -0.3061926801 0.0732499694
-0.0750445813 0.0016449999 -0.2982086119
-0.1658780696 -0.2015989199 -0.8694013661
0.4178147161 -0.2851964193 0.0208156992
-0.1293014266 0.0072684602 -0.1347409261
-0.1144901062 -0.0031889650 -0.1372036391
-0.1563284665 0.0265085131 -0.1294881811
-0.1788148390 0.0467536959 0.0171967641
-0.2076757945 0.0689184365 0.0201817567
-0.2241101881 0.0721504158 -0.0143192050
-0.1732518815 0.0386400156 0.0019377218
-0.2129569700 0.0697752526 0.0083974178
0.1467331815 -0.1685678071 -0.0314700996
0.1633004814 -0.1773447928 -0.0308584723
0.1376290362 -0.1622733535 -0.0254906589
0.1018423304 -0.1374023367 -0.0015125770
-0.0444482018 0.1542700894 0.2688740284
-0.3933609593 0.2146378078 0.0048256654
0.1074909136 0.1670921930 0.4621886689
0.0181103262 -0.0424155763 0.1668807256
0.0307052207 -0.0297899674 0.2380778945
-0.0164365931 -0.0997320303 -0.1759171108
0.0188635040 -0.0519402939 0.1043266296
-0.0513374437 -0.1466603529 -0.4509210582
-0.0042718961 -0.0791990738 -0.0529364097
0.0201918284 -0.0492113422 0.1208493525
0.0120333376 -0.0503137057 0.1208073100
-0.0515228158 -0.1742411755 -0.7869448962
0.0161155780 0.1050956870 0.2583999454
0.2620333407 -0.2087754359 -0.0028752311
