-0.4761830051 0.2914491760 -0.4651371079
-0.0777802745 0.0290599049 0.0590125842
-0.0723084288 0.0130666247 0.0659668040
-0.1182826691 0.0614850579 0.0201721427
-0.1350331314 0.0371441373 0.0016767177
-0.0716861573 -0.0176245908 0.0642698508
0.3348116159 0.0555568028 0.2474276311
0.2881181136 0.1194024770 0.2915857161
0.1059230212 -0.0774030046 0.2112353285
0.2116137331 0.1505996085 0.1549683073
0.2413826893 0.1689064488 0.1727701001
0.0666201401 0.5157385035 0.2932673749
0.2030896091 -0.3114264494 0.2449791143
-0.0222155898 -0.0250145143 -0.1020893955
0.1683415461 -0.0277252887 0.1804481523
0.1627344625 -0.0065362820 0.1827996040
0.1103224504 0.0799783445 0.0427344934
-0.4897473142 0.3250886613 -0.4710090379
-0.2429329570 -0.4953711382 -0.4425260263
0.3297652002 0.1046075120 0.2868658925
-0.4323387801 0.6168318612 -0.2636654600
0.0872231033 -0.2090201628 0.1553009604
-0.0037234615 -0.1258435382 0.0724678732
0.2554086055 -0.2834556992 0.1798012065
0.2925418041 -0.3169585911 0.2154941296
0.1222730783 0.2178722811 0.1750590547
0.1404187362 0.0339784571 0.1699407699
0.1273158410 0.1102087841 0.1858058567
0.2591238199 0.1515853891 0.2572629504
0.1838549789 0.1528578189 0.1952608085
0.1083639342 -0.3394135849 -0.0549515108
0.2220189636 0.1205535546 0.1744401451
0.0196644262 -0.1055181321 -0.0767227405
0.0031351400 -0.0542572045 -0.0735254914
0.0776095371 -0.0889616712 -0.1435330521
0.4341997793 -0.3318483897 0.4846115525
-0.1001276229 0.1923648300 -0.2077887281
0.3297523307 0.0989037944 0.2377936108
0.1338258800 -0.1685263504 0.0428498316
0.2796986961 -0.3820094321 0.3205445067
-0.2036101295 -0.4821802255 -0.3754124511
0.1957318566 -0.1475262087 0.0594519956
0.0560669425 -0.0939429649 -0.0377186800
0.0984155852 -0.2049483914 0.1170411022
0.1091413244 -0.2887719583 0.0094675305
0.4282535172 -0.2781621956 0.3851874739
-0.0230781993 0.1420485229 -0.0591896397
0.2118806315 0.1819002212 0.1688058004
-0.0545625073 -0.3985910500 -0.2078377943
0.0564564163 0.5630603108 0.2742371264
0.0907580294 -0.3342280164 -0.1006607200
-0.2368758496 0.1917045700 -0.3125073213
0.2072883519 -0.0165753171 0.1600775086
0.2025533665 0.0348843207 0.1926080560
-0.4473689851 0.3773058472 -0.3287499291
0.3951930724 -0.4239025249 0.5225897687
0.0196314931 -0.2934780283 -0.0769060756
0.0971161848 0.1215950348 0.0747639795
-0.4417418385 0.2960558407 -0.2460051976
-0.4544109280 0.2996667403 -0.2464238326
-0.4647123525 0.3005775421 -0.2448731164
0.1618169548 -0.0541859518 0.1765308442
0.4662785860 -0.5344271824 0.5047816682
-0.4625314508 0.3419036481 -0.4401729503
0.1583552660 0.1657803359 0.2494742423
0.1353546648 -0.3809828756 -0.0292018199
-0.0478517183 -0.0434346475 0.0866680515
0.0343146819 -0.1246704173 0.1642242904
-0.1224029969 0.0233892563 -0.1410923074
0.0882422418 0.2746332505 0.1598731260
0.2200917799 -0.2360067294 0.1157188814
-0.0341477077 -0.3071606288 -0.1428049235
-0.1171075644 -0.3962972338 -0.2563033038
-0.0274360628 -0.2089793995 -0.1601232395
0.1806598759 0.1113850287 0.2460916599
-0.3679547731 0.3646493217 -0.3082818173
0.1206672438 -0.0196941636 0.0012990556
-0.1191374116 0.0459856907 0.0204605453
-0.1300572633 0.0493898827 0.0097222763
-0.0757728316 0.0020989669 0.0627242449
0.0641091129 -0.0995063504 -0.0643709127
0.5936405191 -0.4431332699 0.4313296418
0.4807216301 -0.4777886136 0.3892126411
0.2685129745 0.0721057093 0.2977258745
-0.2730399244 0.2491808125 -0.3477393821
-0.5645849696 0.2897061859 -0.5504232273
-0.5621072487 0.2780816542 -0.5488536902
0.1430642126 -0.0366657903 0.1405986123
0.0594878336 0.0692294090 0.0346940397
-0.2735110165 -0.5213278493 -0.4645631527
0.0659539908 0.2117514429 0.0954527849
0.2249641289 0.1246814163 0.2574614832
-0.0290085418 0.0186858964 -0.1439938300
-0.4803232032 0.4183578955 -0.3772794045
-0.0119698117 0.0419954861 0.0871890785
0.0723493512 -0.0358296374 0.1697647113
-0.1249053000 -0.0051661006 -0.0150688951
0.1310048005 -0.2419758778 0.2310313715
-0.0656270327 -0.0612708522 0.0391348451
0.2725431590 0.0376513226 0.2718052443
0.5494159485 -0.5378989704 0.4841419066
-0.1844327371 0.2228277914 -0.2951353542
-0.2490076707 0.2779428450 -0.3318434309
0.0536973784 0.5032681020 0.2178488353
-0.0625707617 -0.0669222361 -0.0158245560
-0.3113459220 -0.5080006234 -0.5146487673
0.2043099571 0.1196612838 0.1942724917
-0.0737791748 -0.4012309109 -0.2124944912
0.6234834046 -0.4304993682 0.4350328268
-0.2052260684 -0.4320072690 -0.3704552416
-0.5102152271 0.4666563195 -0.4616511423
-0.3818905575 0.3282416068 -0.2479180344
0.2331049631 -0.1468131013 0.2879699379
0.3994603000 -0.2483967075 0.3355560661
0.2293484124 0.0914931221 0.2759984823
0.0768007110 0.0778964722 0.0568790581
-0.4665713843 0.4459733518 -0.4067720653
0.0847582990 -0.3199641182 -0.0775952251
-0.1988376491 -0.4019518503 -0.3778041648
-0.4664212315 0.4209289128 -0.3649305926
0.2927197359 -0.2671997483 0.4055641617
-0.2940894092 0.1777595561 -0.2990469456
-0.0385764120 -0.3396138846 -0.1541620850
-0.0607227829 -0.3524668658 -0.1820987053
-0.0581416669 0.1715934062 -0.1053974190
0.5256695162 -0.4045451074 0.5379021202
0.5291089999 -0.5494329838 0.5060407221
-0.2761306753 0.1261795623 -0.1837690605
-0.1929600923 0.0502833948 -0.1003385361
0.1120036058 -0.3579304114 -0.0734952140
0.0597581115 -0.1081230138 -0.0651026412
-0.4197455166 0.4228377714 -0.3429771935
-0.1461480841 -0.4393733258 -0.2998719850
0.1281452520 0.0220406483 0.0324061423
0.1228345578 0.0121971979 0.1295356529
0.0831536217 0.3065647863 0.2085858017
-0.2363607514 0.1249587691 -0.0995744241
-0.2605585829 0.1502801979 -0.1217549709
-0.1318920423 -0.3371378590 -0.2746379879
0.1214338405 -0.1089647758 0.2378363630
0.2637994711 -0.3448827271 0.3832161806
0.2570969652 -0.3375591157 0.3776063740
-0.3836023811 0.4088245363 -0.3783630743
-0.4577112397 0.6324657237 -0.2960317485
0.2221143650 0.1227913784 0.2352166977
-0.0924266563 -0.3800709049 -0.2579345615
-0.0487120115 -0.3362070188 -0.2044869227
-0.4060712320 0.3872761158 -0.4239284611
0.0010152217 -0.1554231358 -0.1279421444
0.0548303662 -0.1789472064 0.1186339895
-0.1574859637 0.2481687823 -0.2537280713
0.1517135469 0.2131596190 0.2608765349
0.1987159107 -0.3400121460 -0.0400954744
0.1386388620 0.0183470464 0.0778623118
0.4580829387 -0.3413840024 0.4899964710
0.4414844409 -0.3217951824 0.4661953497
-0.4821193500 0.4529518253 -0.4203111574
0.2105589446 -0.1747299993 0.0722706138
0.1682590219 -0.0433459776 0.1591949990
0.1884286401 0.0289746661 0.2225433062
0.1483983582 -0.3565004693 -0.0920693583
-0.1488664578 0.2458880693 -0.2407098547
0.0165215470 0.0385277805 -0.1083465030
-0.0251352509 0.1446605704 -0.0702421478
0.0227992466 -0.0293956809 -0.1030292525
-0.4583987071 0.4457827716 -0.4345640905
0.3057868777 -0.3953430060 0.4130670418
0.2604294121 0.0623198444 0.2177394119
-0.4287420955 0.4784476661 -0.3263437334
0.1811499059 -0.2945928714 0.2603546780
0.1600721355 -0.3937606095 -0.0565623027
-0.2764245637 0.3394075696 -0.3173097321
-0.2397695338 0.2039078382 -0.3196501342
-0.4699993634 0.3400970540 -0.3759357365
0.5856592214 -0.5566203274 0.5542081911
0.0448497494 0.6559648474 0.3082376111
-0.4374751048 0.2665820164 -0.4282498959
0.5660650677 -0.4482793762 0.5572611681
-0.1114069394 -0.0170648142 -0.0010082876
-0.1344776870 0.0042448668 -0.0234084828
0.0886599749 -0.1995314449 0.1960942727
0.1775062835 -0.1273186383 0.2679092587
0.1472439766 -0.1002662936 0.2391736453
0.0266529446 0.0136378741 0.1182160787
0.2601886131 0.1094117513 0.1782490521
0.0583947740 0.4552641930 0.2423604178
-0.3299321561 0.3478183464 -0.2449774424
0.0690952176 -0.1551382423 0.0030979487
0.2150686947 0.1187976930 0.2645463859
0.2053245534 -0.0882118481 0.2098693903
0.4178967854 -0.4722738345 0.3852077466
0.3854191541 -0.4413526084 0.3520876864
0.2275093915 0.1864318498 0.1797916995
0.1997784915 0.1756553824 0.1915979607
-0.7141869851 0.3961871640 -0.3104417121
-0.6856412772 0.3911419593 -0.3152040599
0.1979904355 -0.3155117425 -0.0196456243
0.0933358747 -0.2902417668 -0.0613669690
-0.2934963081 0.2444650071 -0.3538657759
0.1286521672 0.1723617882 0.1844017849
0.0593315191 0.4831593487 0.2624710251
-0.1769069625 -0.3410771198 -0.3398625445
-0.1474224940 -0.3016900766 -0.3006143945
0.0443603561 -0.0695894322 -0.0683716609
-0.2944654049 0.1477216904 -0.2464466302
0.1250156861 0.3915330873 0.3016694422
-0.1189234042 -0.3061246436 -0.2577662930
0.0546391443 -0.3261295017 -0.0579977430
0.5371651523 -0.3979410089 0.4104014951
-0.3995230910 0.4435866294 -0.3075120030
-0.1913814507 0.2186244008 -0.3016159511
-0.1879683804 -0.3720288802 -0.3531766757
0.1332938379 0.2045328482 0.2385544873
0.4504466739 -0.3370428217 0.4866801256
-0.4362803354 0.3184006717 -0.4007143837
0.2949312903 -0.2662519148 0.1795918013
0.3475834596 -0.3121376384 0.2298299100
0.2608124273 0.1485623605 0.1820962404
0.1408028233 0.2696992850 0.2367178563
0.1454905130 0.2711087811 0.2467673547
0.1068080694 0.3748538141 0.2821507537
0.1164003986 0.3302527604 0.2740060835
-0.5959113999 0.3326662247 -0.2750575249
-0.5233608081 0.3137066565 -0.2784474858
0.2505614742 -0.2140597165 0.1240575363
0.2119812969 -0.1653040526 0.3069916399
-0.4169116514 0.2662075449 -0.3492359910
0.4713648500 -0.5138982868 0.5564621598
0.3481071472 -0.4406170928 0.4449290211
-0.4512782711 0.4849014352 -0.3601364956
0.5781301983 -0.4718762272 0.4760905648
0.2950420949 0.1062343953 0.2013300205
0.1747209465 0.0768725630 0.0487040816
0.2024186751 -0.0557267543 0.0991940196
0.2145257384 -0.1621606404 0.0780770525
0.3664589012 -0.3712281841 0.4909752522
0.2794358933 -0.2888286072 0.4053107853
0.1845309974 -0.1908140738 0.3095258454
-0.5029408437 0.3874328418 -0.4177334633
-0.6146320372 0.3330170987 -0.2674594574
-0.6397080989 0.3372903607 -0.2623100856
0.1244723237 -0.1562521433 -0.1318602936
0.0973797465 -0.1408740972 -0.0307729242
-0.1926317003 -0.4388093366 -0.3778944105
-0.0123360572 0.0092955639 -0.1372804206
0.0736851195 0.1806549663 0.1105235648
0.0680990955 0.1889275194 0.1010858379
-0.1211167895 0.1785578911 -0.2416482514
0.5383819892 -0.4504102958 0.4068761268
-0.0002131647 -0.1025126665 -0.1188850663
-0.0118067125 -0.1891034898 -0.1414980277
0.2025131296 0.1189842164 0.0513275318
0.0813634722 -0.1178978712 -0.1024158605
-0.0912774626 -0.3297502094 -0.2173652441
-0.0064408762 -0.2335584434 -0.1026812582
0.0118153092 -0.2033648891 -0.0771207573
0.1218513387 -0.1231156600 0.2444170793
0.1198537875 0.0783815588 0.0784110210
0.0949217417 0.4731424610 0.2826337151
-0.1686858579 -0.4733793632 -0.3497218475
-0.0016680205 -0.2958834729 -0.1473995293
0.1767876839 -0.2291112092 0.1069770211
-0.1420164685 -0.4346398943 -0.3188884230
0.2123258942 -0.3781839697 -0.0562940932
0.4305535906 -0.2768705778 0.3646325268
0.1139380864 -0.3482391669 -0.0173147762
0.0859205715 0.3337741316 0.1887862500
0.1030618038 0.3799989532 0.2393509893
0.1207462141 0.2808618845 0.2088755052
0.0610134368 -0.1283643502 -0.0099241748
0.0908699531 -0.1568021569 0.0434890506
-0.4852885548 0.4381669241 -0.3922417626
0.0247546275 -0.3482988277 -0.0977286979
0.0846737959 0.2105691315 0.1204485468
0.1703012485 -0.3789624592 0.0099333706
0.0884093030 -0.2086965483 0.1442250097
-0.1938089987 0.1532108667 -0.0587170641
0.1926461634 0.1564777909 0.1942437340
-0.0876212236 0.1060145656 0.0178132748
-0.0466469724 0.0748711055 0.0524905981
0.1176488115 -0.0203576788 0.1434211670
-0.4632038864 0.4538188410 -0.3987346409
0.0908415187 0.4131936624 0.2404527532
0.2167141984 -0.2720444217 0.3480687431
0.1763361050 -0.2182103204 0.0617270787
0.2260268284 -0.1857102764 0.3267923823
0.0625442314 0.3660804833 0.1975573441
0.1345473118 -0.1958991534 0.2679455738
-0.0307642399 -0.0433731244 0.1066103160
0.4576145061 -0.4934053766 0.4053372360
-0.3744383197 0.3786528059 -0.3987487545
0.1542539340 -0.1666762683 0.0270235383
0.2621793318 -0.2933797239 0.1898298710
0.2352881396 -0.2859429017 0.1831946702
0.5577622618 -0.5239261884 0.4711204201
0.0175993845 0.1062157809 -0.0764398878
0.1497241111 -0.2824827592 -0.0996129924
0.2752112850 0.1497259670 0.2407767761
-0.3971501603 0.4020172055 -0.3248212869
-0.4321942153 0.5427190036 -0.2979430641
-0.6979789080 0.3882292156 -0.3071830552
-0.7789597315 0.4089580205 -0.3011260882
0.0889037686 -0.1036660584 -0.1230498147
0.3644002955 -0.3420305531 0.2542645907
0.3918514869 -0.3633249767 0.2785613680
0.0964972117 -0.3155396781 -0.0522544786
-0.1923980152 0.0801939473 -0.1994518337
-0.2885659613 -0.4797737364 -0.4885063580
0.2693744112 0.0588618048 0.2624733738
0.2831705883 -0.3763485202 0.3012010793
0.0971226044 -0.2862114391 -0.0237569481
-0.0532358305 0.0585884812 -0.1625384896
-0.2929493486 -0.5635683585 -0.5040935740
0.0837334128 -0.0756294745 0.2018687022
0.4947064102 -0.5260822670 0.5622209049
-0.2940436929 0.1436584630 -0.2328599754
0.5050654408 -0.4304562000 0.3734087716
0.3490377515 -0.2595796506 0.2173084339
0.0070474843 -0.0729903720 -0.0488801645
-0.4007786007 0.4149012520 -0.3228482297
0.1854768635 -0.3796996478 -0.0611045563
0.0542818471 0.3332465055 0.1579204070
0.0477320610 0.3928731922 0.1801917291
-0.4705258834 0.2375545497 -0.4654348649
0.0427038238 0.5015613235 0.2178187814
0.3587786097 -0.4217363771 0.4814393446
0.5863167198 -0.4516567635 0.5175849159
-0.4091450666 0.3807682287 -0.2966755440
0.1127800197 -0.1713794813 0.2467958360
0.1435847573 -0.2006730620 0.2768359211
0.2431793000 -0.1085999273 0.1331345464
-0.2316173126 -0.4782694551 -0.4071289162
-0.0019841768 -0.3493439431 -0.1199222052
0.0641809676 0.0853391248 -0.0193427943
0.1362529737 -0.2924190332 -0.0343054469
0.4834594708 -0.4658500287 0.3803270290
0.2234051912 -0.1520786033 0.0909936670
0.2983315873 -0.1783810836 0.1772496753
0.2648596604 -0.1088998010 0.1737285465
-0.2794492594 -0.4775080397 -0.4713682248
0.1932851914 -0.3963284939 -0.0535647644
0.5649897961 -0.4219371421 0.4542844149
0.1739832440 -0.0565557944 0.0586984562
-0.3599109582 0.2275335412 -0.2338382845
-0.3894835554 0.2680823201 -0.2594307514
0.3758143369 -0.2400045857 0.2614893337
0.4715297420 -0.3239937624 0.3607043674
-0.5540617832 0.3396005152 -0.2656793199
-0.7816371639 0.3930923813 -0.2649360743
-0.7428562114 0.3858265824 -0.2680952379
-0.7321424212 0.3826755376 -0.2670729640
0.2528597332 0.0884345581 0.1978131296
0.2026585414 -0.3301839210 -0.0324820945
-0.1538199469 0.2478095259 -0.1572148070
0.2346193411 -0.0759286348 0.2062998273
0.1329104545 0.0367205060 0.1600577912
0.1393894445 0.0651311146 0.1828726834
0.0753713242 -0.1096360863 0.0091848963
0.0386512303 -0.3338186765 -0.0932280897
-0.1353228093 -0.3170394561 -0.2798620238
0.1478952507 -0.3284801843 -0.0016075124
0.0588020975 0.1276384665 0.0277792628
-0.1785420495 0.1942791967 -0.0747843137
0.6314800803 -0.4332264526 0.4167691449
-0.3110889694 0.2171310868 -0.1671684702
-0.4256774632 0.2699075795 -0.2446728835
-0.1774735015 -0.3668440959 -0.3642822873
0.0228630478 -0.2748846054 -0.1178580771
0.5866621399 -0.4597106845 0.5424572159
0.2528544060 0.1381510088 0.2245116888
0.1668080600 -0.2882006362 -0.0574477419
0.0145590865 -0.2815807888 -0.1084565791
0.4812133524 -0.5054682312 0.4215917729
-0.4376127957 0.5973231505 -0.2898484961
-0.4281128118 0.5498011915 -0.3041387375
-0.4643606431 0.2863537185 -0.4379373020
0.2759761728 -0.3065061934 0.2038249336
0.2931851215 -0.3277274447 0.2267290440
-0.2916795432 0.1894711054 -0.1494391602
0.1575477666 0.0963939617 0.1494201743
-0.0518425878 0.0330588023 -0.1507857977
0.4415532122 -0.5191622312 0.4632902763
0.1511984958 -0.1145171916 0.2517658508
-0.6752458865 0.3798341932 -0.2858467450
-0.4922102630 0.3632851743 -0.3310458854
-0.4824548008 0.3549674454 -0.3203812473
-0.6575598305 0.3880035287 -0.3073993488
-0.7348528168 0.3914608653 -0.2820714819
-0.7893893599 0.4035288611 -0.2811990516
-0.5181590724 0.3471874914 -0.2921756868
0.4327998878 -0.5100824922 0.4442015147
0.4554700774 -0.4606339156 0.3691486490
0.4167598968 -0.4296303533 0.3354232152
-0.4321737757 0.3585926892 -0.3056535495
0.1577746059 -0.2836463828 -0.0775869628
-0.3943119609 0.2467117473 -0.3426204406
0.2207688929 -0.1260177771 0.2625523079
0.3377681887 0.0862022716 0.2660514216
-0.0688943000 -0.3572624190 -0.2292002096
-0.2563555252 0.1168444434 -0.2191859887
-0.2354225632 0.0987798857 -0.2014878875
0.2751748839 0.1459083127 0.2568963327
-0.2100484359 0.0719949411 -0.1684963037
-0.0345493158 -0.0671477846 -0.0417766421
-0.3425741207 0.1988553474 -0.2270293903
0.2266127539 0.1462735009 0.2531956129
0.3220150342 0.0848495208 0.2391201107
-0.4651263387 0.3695952863 -0.4357452223
-0.4584524712 0.3171674686 -0.3095738973
0.2734619110 0.0472506048 0.2915501113
-0.2038568104 0.1372492281 -0.2667155706
0.0095079368 -0.0834574641 -0.0958960249
0.4969127361 -0.5025507670 0.4184643033
0.1796778431 0.1600477695 0.2508973167
-0.5385050199 0.2466455406 -0.5265842710
-0.5165970693 0.2943418624 -0.4936966640
0.0454604990 0.5060610291 0.2273458706
0.0823400754 0.5637472048 0.3322648232
0.0738902846 -0.3153914712 -0.0784299824
-0.4344466930 0.3545544579 -0.4375322146
0.2315376307 -0.0985330594 0.1191993013
0.2372818775 -0.1248134990 0.1161023061
-0.4797539834 0.5467320795 -0.3674275417
-0.4796584383 0.6093876653 -0.3337552319
-0.4733494192 0.5544234750 -0.3561458678
-0.1330592425 -0.3012953514 -0.2783092933
-0.1090500490 -0.2666348586 -0.2475001023
0.0458562977 -0.0928573541 -0.0766271861
-0.0820555907 0.1804670340 -0.1859350122
0.0672670043 0.4925763650 0.2309222139
0.0898362396 -0.3310339383 -0.0333172269
0.0210137765 -0.3074545869 -0.0786536981
-0.5252538175 0.2153825582 -0.5291049417
0.1554041871 -0.3170652538 -0.1132961063
-0.3491868238 0.2340759561 -0.2120082362
-0.3346031158 0.2971599672 -0.3867468681
-0.5093015711 0.3566829984 -0.4770764714
0.4179694397 -0.3734679014 0.5221757277
0.0823539392 0.1438475815 0.1114913094
0.0931079401 0.1028005218 0.1144026909
0.1521393578 -0.2421629663 0.2742976071
-0.0136272658 -0.0918091106 0.1109036302
0.0439527164 0.5128770589 0.2159364821
0.0914878349 0.1360606112 0.1301856839
0.2966896222 -0.1537063417 0.2186098528
0.1643880892 0.1007502929 0.0186390328
0.2642041453 0.1615968001 0.1951685297
0.1334060400 -0.0363682351 0.1614619909
-0.1358260270 0.1812239367 -0.2546093522
-0.1537253961 -0.3721766556 -0.3243493939
0.1060081243 0.0674298891 0.0497814895
-0.1948110817 0.1903491986 -0.0764329948
-0.4856495930 0.2858719204 -0.2425913798
-0.6359231055 0.3298361563 -0.2479445546
0.1649010180 0.1631647050 0.1880827568
0.0786441795 -0.3386412527 -0.0481227494
0.1188604956 -0.0326851738 -0.0057647193
0.0702830087 0.0136917830 -0.0528213588
0.1131100497 -0.0223504150 -0.0103439407
0.0863738338 -0.1249766617 -0.1242912351
-0.2043191830 -0.4929520645 -0.3805080523
-0.0458733678 -0.1747682506 -0.1711974402
-0.0170135641 -0.1433333599 -0.1399302869
0.1424033320 0.1207057977 0.0040168234
-0.0139486702 -0.3448391491 -0.1631950893
-0.0173132629 -0.3559523060 -0.1672440488
0.2531449159 0.1141723058 0.1866310320
0.3277739875 -0.3342493199 0.2366797050
0.0541702651 -0.1769482766 0.1096306001
-0.4315242273 0.2869658944 -0.3258483813
-0.0682718446 -0.2464679040 -0.2094709028
0.4605182354 -0.3539869189 0.3262092373
0.1123462676 -0.0953868652 -0.0223903895
0.2264442256 0.1750673336 0.1618506970
0.0934312003 0.4960243004 0.2942286442
-0.5190528911 0.2185796719 -0.5128583623
-0.4865468956 0.2622366645 -0.4674066015
-0.3200125240 0.3320564377 -0.2263066595
0.2155268820 0.1020888257 0.2677609958
0.3005707531 -0.3755734027 0.4212730167
-0.4036415996 0.3008606090 -0.2615786518
0.1121558009 0.4240810593 0.3059588143
-0.5654268797 0.2196988771 -0.5700086576
-0.5458854825 0.2366580057 -0.5467501306
0.1131892449 -0.2683416990 -0.1307623376
0.4900724479 -0.3867639133 0.5354833798
0.0757641043 0.5728755881 0.3099441939
0.2722080144 0.1176895560 0.1857268124
0.2902719006 -0.2184975143 0.1608271040
0.0563024927 0.3793393220 0.1921332446
0.0187004264 -0.2586274588 -0.1327547702
-0.3773030680 0.2930361467 -0.2387742254
-0.4241127859 0.2714970729 -0.3353955945
-0.0473201548 0.1454799606 -0.1548546935
-0.1368112592 0.1196697605 -0.2356807070
0.0204589290 -0.0910461723 -0.0270895844
0.4541092238 -0.3193624688 0.3311676114
0.4486672389 -0.3112031940 0.3285434811
0.5258985923 -0.4477650249 0.5736765911
0.2315102833 0.1005470382 0.1884192653
0.4614799502 -0.4714319982 0.5666924397
0.2026208359 -0.2955136817 0.3179863824
0.2612837138 -0.3507219172 0.3741881268
-0.1240679028 0.2275502654 -0.1476072377
-0.2077745953 0.0794046608 -0.0845333546
0.1372628673 -0.2513105943 0.1824127344
0.1367570195 0.1963029920 0.2392564178
0.0973545623 0.1119243750 0.0681638736
-0.3086887955 0.2918890223 -0.3741487344
-0.4515328973 0.4610653137 -0.3817054827
-0.4385665849 0.4604782154 -0.3666594927
0.0517773532 0.6127800071 0.3182480893
0.1823957625 0.1075232405 0.0593579417
-0.0993476519 0.0664760397 -0.1863175013
-0.2068204524 0.0610117981 -0.1290039251
0.3876188557 -0.2461920031 0.2797826447
0.3365594436 0.1016026851 0.2674783924
0.0954219687 -0.1187825563 -0.1299105153
0.1210983892 -0.2511604055 -0.0047181830
0.1359975184 -0.2386783461 0.0118824519
0.0374584812 -0.1135463977 0.0013692073
-0.3896457183 0.3236705706 -0.4139912480
0.1640873708 0.1558633067 0.0092302027
0.0697857708 0.4394205817 0.2588361492
0.0650098568 -0.2896739060 -0.0740461676
-0.2452553196 0.2298715995 -0.3303354668
0.2260098852 -0.0511160522 0.1901830290
0.0457797842 0.5758816598 0.2872982101
0.0254071443 0.6359029645 0.2721403798
0.0154925473 -0.1084742130 -0.1059899235
0.0735041789 -0.1259341590 -0.0527610134
0.0588723168 0.0812452917 -0.0364314866
-0.0403697473 0.1162208471 -0.1606827709
0.3713691880 -0.2283683870 0.2688832235
0.5102879209 -0.3528068872 0.4129779973
0.1548752440 0.1403994791 0.0414113320
0.1503603793 0.2842369603 0.2729855022
0.1578855838 -0.1695221654 0.2844448523
0.1691751861 -0.1812594629 0.2958592844
0.0865336181 -0.1108107361 0.2167928277
0.2219847696 -0.1177405908 0.0976832608
0.2039788419 -0.1816601307 0.0675135313
0.1303795784 -0.1502873181 0.2593559409
0.5266461487 -0.4697037547 0.5814002141
-0.3019940331 -0.5609783364 -0.5095789843
-0.1289362413 -0.4221957434 -0.3027287871
0.0797569977 -0.1362375700 -0.0923389777
-0.2795239844 0.3462344181 -0.2848024524
0.0673143822 0.2764975462 0.1346402095
0.0674814297 -0.3171876322 -0.0567585176
-0.4624259680 0.5747565085 -0.3330110353
-0.4622598740 0.5980976474 -0.3203685250
-0.5059549981 0.4651091463 -0.4494535776
0.1907273791 -0.3004490066 0.2345153323
-0.4043335080 0.4663983439 -0.3185845940
-0.4209084670 0.2880218645 -0.2993434138
0.1142247579 0.0177156926 0.1139276532
-0.4122718807 0.3979598293 -0.3682087897
0.1271721374 0.2342038952 0.1916545736
0.0914794545 0.2479745545 0.1494773473
0.5008082099 -0.4315352487 0.5682393176
-0.1133080046 -0.3243087699 -0.2497059599
-0.1638674282 -0.3863699872 -0.3377489982
-0.4480629261 0.3430656940 -0.3265934503
-0.0781230691 -0.3622050668 -0.2042427811
-0.0509201113 -0.3423696109 -0.1685865579
0.1822582773 -0.1304511208 0.0468363080
0.1184092478 -0.0545304642 0.1909207992
-0.1829426783 0.0438191249 -0.1338326283
-0.1684996895 0.0280431017 -0.1092946226
0.5771628776 -0.4339676283 0.5036524346
0.3206150200 0.0413264563 0.2434695297
0.1021774609 -0.0194970754 -0.0225039606
0.0413641554 0.0380730629 -0.0815213985
0.1386772505 -0.3457298946 -0.0050446017
-0.2839762004 0.1869870667 -0.1409092154
-0.3125176490 0.1626672272 -0.2552858864
-0.3706059385 0.2219802846 -0.3173300995
-0.3452645457 0.3540845975 -0.3863665955
0.0880385902 0.0053239461 0.1171771542
0.0902974987 0.1406404536 0.0787817530
-0.2691472066 0.2268308326 -0.1335105327
-0.2574760772 0.2160049559 -0.1221088057
-0.1310556047 0.2301218978 -0.2250663234
-0.4707292230 0.2742211229 -0.4478962212
0.0983622341 -0.1124734455 -0.1627582170
0.4515486125 -0.3470598429 0.3173568692
0.0698477751 0.0769472740 0.0080492817
-0.0329462120 -0.0871393341 -0.0042142879
0.3771648872 -0.2283397244 0.2925528896
0.3226503825 -0.1772945608 0.2459387789
0.0767850457 0.4796670465 0.2574891161
0.0418438265 -0.2424700412 -0.0943082905
0.0648801970 0.1040980012 0.0198956411
0.1523757945 -0.0144383587 0.1652921875
0.2191392848 -0.3254725953 0.3114266640
0.1861568989 -0.2961562982 0.2769200738
-0.1563355118 0.1812803625 -0.0598606355
-0.1667835933 0.1968847633 -0.0763059434
0.1362198461 0.2263481910 0.2518195271
0.1021683046 0.3465747364 0.2633780831
0.2386541853 -0.1925564331 0.3352459103
-0.0394857737 -0.2686319507 -0.1482256605
0.0019628018 -0.1084885646 -0.1044025181
-0.3078877766 -0.5472562976 -0.5222530781
0.4455799107 -0.4679179545 0.3756515044
0.3062399527 -0.3497071708 0.2508188217
0.3927599332 -0.4194952400 0.3242217253
-0.2140631844 -0.4071557760 -0.3837281053
-0.4180880938 0.2818633823 -0.2769236091
-0.1041904219 -0.2626067637 -0.2410076593
-0.0961101347 -0.2520932077 -0.2305745021
0.5088077947 -0.3862980737 0.3758524306
-0.3158111846 -0.5493411615 -0.5269186224
-0.0596397819 -0.3673147959 -0.2186520207
-0.0819091204 -0.3923969432 -0.2458035490
-0.4257820746 0.5911742249 -0.2755596039
-0.4363873973 0.2952604841 -0.2883200287
-0.1555684209 0.0170378339 -0.0590400735
-0.0216761349 -0.1080670315 0.0628760835
0.3768472697 -0.4750138934 0.4353264741
-0.5342277274 0.3298845517 -0.5097971980
-0.4123076602 0.3718985651 -0.4303589658
-0.1047995208 -0.3112689940 -0.2389037679
-0.5480341309 0.3025793504 -0.5293438935
-0.5341587365 0.3045184700 -0.5128072606
0.0431144809 -0.1385289516 -0.0885012535
-0.5346065350 0.4646749094 -0.4707703577
0.2344546396 0.1126466652 0.2089228834
0.1147170378 -0.3320161044 -0.1049299795
-0.2534196805 0.1692430793 -0.2972908881
-0.3371156043 0.1975542476 -0.2160022538
-0.4754895361 0.4640616247 -0.4037732888
0.2260291228 -0.3578681325 -0.0449670089
0.0873497345 -0.3209755123 -0.0643179975
-0.6744077683 0.3414440080 -0.2368127487
-0.1398567828 0.2378728621 -0.1495490424
0.2368975141 -0.2387361050 0.1192739225
0.3064147238 0.1164619689 0.2157124542
0.2039705976 -0.1875630188 0.3200703804
0.2104921381 -0.3203075593 0.2943461916
0.2898640986 0.0394041225 0.2626043388
0.0182157062 -0.1972986268 -0.0682373725
0.0275137259 -0.0060614986 -0.1047383777
0.0797204087 -0.0849457774 -0.1328400335
0.0079528962 -0.1115726636 0.0081934324
-0.1569898843 0.1441556442 -0.0322764244
-0.4012815611 0.3200147894 -0.4149800682
0.1956051298 -0.2086564195 0.0801253414
0.0913431149 -0.3013148938 -0.0650821034
0.0202665423 0.7183973965 0.3165475569
0.1755319714 -0.1988644939 0.0548051885
0.1000276490 0.1519181651 0.1113671919
0.5366406874 -0.5097395431 0.5846019528
0.2237017430 -0.3680371051 -0.0389805813
0.4827988025 -0.3342676825 0.3718160392
0.1053721929 -0.1379786652 -0.1434734853
-0.3528406421 0.2324534732 -0.3471348416
0.0827323554 -0.1037087777 -0.1493145478
-0.4550475034 0.3669096065 -0.4123436841
0.6154460103 -0.4497861165 0.4027713535
-0.0841772432 0.1888644462 -0.1020800560
0.2029796950 -0.2936334342 0.2030319344
0.2664759895 0.1325263298 0.1902099185
0.2250640490 -0.3421443114 -0.0311383510
0.0502580164 0.5399173145 0.2535199281
0.2559225197 -0.2087857311 0.3524053197
-0.6242034694 0.3446729603 -0.2499090698
-0.7666264280 0.3772973779 -0.2470619141
0.0972184923 -0.0943042373 0.2178529690
0.0546761811 -0.0573237698 0.1771887946
0.0530695828 0.4884524630 0.2397082238
-0.4517590433 0.6328501696 -0.2883735935
0.2343798300 -0.2056739150 0.3435486390
-0.2487485902 0.1152847994 -0.2246515497
0.0648698894 0.1264440142 0.0353595292
0.1549519146 -0.1857427197 0.0601888462
-0.0351427076 0.0402920330 0.0815770759
-0.0966611692 0.0993253799 0.0199040805
0.0594739552 0.6804142384 0.3486898078
0.0304952034 0.0825355592 0.0231723745
0.1116934527 0.3847663047 0.2571161795
0.1268741734 0.2995381991 0.2304333259
-0.4319972507 0.4875116893 -0.3261244176
0.0392665286 -0.1792898369 -0.0914776837
0.2627556195 0.1182737765 0.2054712980
0.4482898333 -0.3272055771 0.3180529172
0.1093450002 0.0456149031 0.1186228507
0.1609832791 0.1228446781 0.2366817422
-0.2871565055 0.3456536410 -0.3267429705
0.0750277819 -0.2722318568 -0.0097750426
0.0565585090 -0.2928174774 -0.0361499735
0.2283214816 0.1123907970 0.2673628150
0.0188305196 -0.0560201491 -0.0944055484
-0.1486935010 -0.3990037783 -0.3233483713
0.3861899630 -0.2392374613 0.2906297041
0.4366682679 -0.2854517765 0.3402986469
0.5395893614 -0.5095392790 0.4445583663
0.0324576556 0.1001488758 -0.0059715804
0.1015004162 -0.0655239048 -0.0331192964
-0.3386422963 0.3811496848 -0.3016603815
0.0881720293 0.1649595187 0.0994480185
0.1070586441 -0.3459088598 -0.0458118552
0.1541431897 -0.2420507465 0.0410325786
-0.4392564925 0.3136565972 -0.3222481735
0.2376794625 -0.1228379781 0.2473057736
-0.2130580411 0.2534288481 -0.1361318442
-0.4273084969 0.2826546704 -0.3680380175
0.0907162992 0.2503884871 0.1914919432
-0.0298250507 -0.1781926530 -0.1422163213
0.0858777956 -0.1285883138 -0.1063288958
-0.4781999436 0.5136813168 -0.3812006461
0.0571314139 0.5171093044 0.2773598830
-0.0118684074 -0.1183657381 -0.1240512670
0.0775279951 -0.2739621850 -0.1210295356
-0.3408455691 0.3768532419 -0.2868257276
0.3703655816 -0.3590236289 0.4900864505
0.2092554632 -0.3598093875 -0.0511197037
-0.5117458986 0.3415040555 -0.4818385053
0.0263334314 -0.0547430555 -0.0826965053
0.1275915905 0.0938442027 0.0753559304
0.0447262518 -0.0444721232 -0.0848451718
-0.4146339464 0.4572309595 -0.3187135605
0.1907005597 -0.3440855169 0.0083892573
0.0826942375 -0.1572073453 -0.0467680240
0.0179995355 0.7622883829 0.3322691872
-0.2669687578 0.1543203760 -0.2789611876
-0.0731655821 -0.4138320712 -0.2300037774
-0.1745475446 -0.3823431350 -0.3480593997
0.2496188675 -0.1056472647 0.1470741177
0.2994209217 0.1272113367 0.2129282059
0.3380793939 -0.2647315864 0.4140351475
0.2576533514 -0.2166486929 0.3591975504
0.5596350500 -0.4472609788 0.4327875674
-0.1204268178 -0.4382010648 -0.2744658271
-0.1652436198 0.0356105510 -0.1361330269
-0.1454086492 0.1751921755 -0.2618144874
-0.6745328588 0.3629301911 -0.2846911675
-0.6622865384 0.3679887948 -0.2958338089
-0.5072680504 0.3300830275 -0.3072200840
-0.7749278620 0.3837864215 -0.2726301665
-0.5153387387 0.3492254087 -0.3284853773
-0.6114974957 0.3515295144 -0.2944272456
-0.5153314767 0.3397784184 -0.3164887220
-0.1311363032 -0.3824444633 -0.3017056757
-0.2970547128 0.1838711346 -0.1573632203
0.1330386113 0.3138692489 0.2824602382
-0.2876315607 -0.5006299615 -0.4921273453
0.0497032150 -0.2930327919 -0.0668066088
0.1982368392 -0.0383801325 0.1073750525
0.0467607909 0.6548644912 0.3312900795
0.2218741820 -0.2295356800 0.1284053918
0.2693374381 0.1571706949 0.2427651057
0.1583885918 -0.3677555919 -0.0235926438
-0.5972254515 0.2386445415 -0.5950733877
0.1852174815 -0.3317918188 -0.0867628285
0.1134400173 0.1477737791 0.1802403321
-0.1304752921 -0.3131204518 -0.2876827424
-0.1762319860 -0.3533215303 -0.3427451025
0.5156016933 -0.4782357217 0.4031443683
-0.1674310433 0.2658760862 -0.2468946814
0.1185461121 -0.3535353566 -0.0946019925
0.0458373450 -0.1268566887 -0.0860170944
0.2975308997 0.0455237570 0.2309314054
0.0394745450 0.0529242078 -0.0789105756
0.0981154365 -0.1189332838 -0.0272309665
-0.3916381722 0.2518323342 -0.2740490867
0.0767082065 -0.1100888598 -0.1395078094
0.1948031688 -0.3094793897 -0.0510575355
-0.6875319582 0.3774571105 -0.2760217781
-0.7773712657 0.3965872170 -0.2733456024
0.1679788282 -0.0297321534 0.1394902768
0.1975066065 0.1270462443 0.2024358182
0.0849832895 0.3794101034 0.2129033588
0.1234974056 -0.1436077304 -0.1220986422
0.1294752579 0.1196968166 -0.0071610531
0.1891123196 -0.3060965563 -0.0609775115
0.1280410453 -0.1881348944 -0.0014459627
0.0775188346 -0.2489809159 -0.0557490166
-0.5557729686 0.3360853258 -0.2961177056
-0.7480305442 0.3737514946 -0.2697560922
0.0911487545 -0.1394287000 0.0165421436
-0.4364137869 0.3322063483 -0.3982692083
0.2352994052 -0.3350015409 0.2608140714
0.2107475491 -0.3175379798 0.2489624844
0.2558798844 -0.3551053912 0.2837594029
0.5714721325 -0.4280217378 0.5139457485
-0.0124777876 -0.2790945606 -0.1121864675
-0.1284112416 -0.3239957534 -0.2701503943
0.0705347510 -0.2532714278 -0.0092232463
0.5735465920 -0.4576953927 0.4418263720
0.2658612179 0.0655746387 0.2748354751
-0.4645498313 0.2927004758 -0.2716956456
-0.5833599359 0.3180253345 -0.2561515030
-0.0042844029 -0.0398212835 -0.0899414901
0.4522935701 -0.4517134404 0.5647384373
-0.6013604362 0.1768919216 -0.6091855147
0.1584089357 -0.2849052438 -0.0654608677
0.2220830374 0.1267497394 0.2478756067
-0.3545051955 0.3450250889 -0.3960744964
0.0990231053 0.3153574788 0.1968978723
0.0991061631 -0.2702265415 -0.0291074991
0.1287660108 -0.2328365846 0.0023218668
0.1033098487 -0.1536487377 0.0331466750
0.4961200382 -0.5383555859 0.4799360170
0.1374485164 -0.0537922286 0.1873810466
0.0544539722 0.4737399901 0.2446824444
0.1118927187 0.1816581262 0.1386851703
0.1489442309 0.0591899752 0.1941915901
0.1523305241 0.0264083032 0.1841174434
0.2928707966 -0.1777079787 0.3080804167
0.1817463339 -0.2024271969 0.0745339620
-0.0537758326 -0.3193233406 -0.1681777681
0.5189593500 -0.5333774744 0.5689872165
0.2912223658 -0.1634577571 0.1775098087
-0.0431629136 -0.1969563449 -0.1595678600
0.0744310558 0.1202150563 0.0432160574
0.2617926232 -0.2414385233 0.3768176162
-0.0638017827 0.1732827473 -0.1513224179
-0.0424247814 -0.2314303358 -0.1801711361
-0.0343363168 -0.0936102702 0.0615339679
-0.1852639902 -0.4115753955 -0.3653435146
0.0595104894 0.6270494747 0.3141180861
0.3183910113 -0.4199070697 0.3977523168
-0.4030862293 0.4016382264 -0.3545667949
-0.2467072104 -0.4334325128 -0.4285564757
0.1612513009 0.1037197674 0.2283492041
-0.3483072483 0.3714589283 -0.2730476365
-0.3566554200 0.2961930061 -0.2188669900
0.0390190558 0.5800270158 0.2747420507
-0.4391565639 0.4392192185 -0.3978491520
0.1880212116 -0.2286443872 0.1146685826
0.2108648317 0.1130989092 0.2301557609
0.3084532911 0.1296680126 0.2632283570
0.0895449916 0.2938416632 0.2148845051
0.0671459514 0.4772749332 0.2745355241
0.1447682006 0.1344813267 0.0139523847
0.1252740621 0.1068956331 0.0686395252
0.2038769955 -0.3256988947 -0.0044215462
0.2447561734 0.0758565723 0.2170908475
0.1465251654 0.1382435696 0.2254598729
0.3880798356 -0.4716681498 0.4922372871
0.0843007506 -0.1802414824 0.2077699645
-0.5751153225 0.2580132453 -0.5691675219
-0.5253515849 0.3060641036 -0.5094674685
0.2508353100 0.0851096133 0.2835773041
0.6245562753 -0.4468667530 0.4079228666
-0.4390536685 0.4060552314 -0.3789170298
0.0341624498 0.5288207701 0.2325124614
0.6068553775 -0.4975132908 0.5495293291
0.0558632641 -0.1269477398 -0.0812784018
-0.2252192383 0.1255966661 -0.2514384255
-0.2556353585 -0.4837065171 -0.4385568213
-0.0685421821 0.1821146788 -0.1366242713
-0.2213912254 0.1170434004 -0.0824854955
-0.4691583945 0.6487464939 -0.3010003942
-0.4748355685 0.6345967616 -0.3148755177
0.0252462948 0.7350707495 0.3236966333
-0.0815092114 -0.2825585971 -0.2309784016
0.0117669740 -0.3366824365 -0.1318620510
-0.0348526275 -0.3660615145 -0.1885914793
-0.0067255598 -0.3412199281 -0.1544043206
-0.3184339142 0.1644444115 -0.2383026255
0.2339100931 0.0810041131 0.2101869657
-0.1172714454 -0.3737771954 -0.2853246336
-0.1441705678 -0.4567974921 -0.3061732138
-0.3009701256 0.3563527263 -0.2772144661
-0.4187774145 0.5773171622 -0.2697787694
0.2270884541 0.0911851819 0.2023721043
-0.4199650368 0.3130715322 -0.4107968938
0.3499028069 -0.2045015016 0.2992956334
0.2899048651 -0.1503264996 0.2461501812
-0.1136591355 -0.0039802649 -0.1039174702
-0.2760389285 0.1580020220 -0.1398989148
-0.2342443567 -0.4370171063 -0.4107558297
0.1485212092 0.1480249938 0.0237309493
0.1466272322 -0.2923665848 -0.0337150684
-0.4787350392 0.5993595626 -0.3380778626
-0.4657529332 0.5587324053 -0.3452995072
-0.4286877485 0.4302325248 -0.3723153360
0.5635533945 -0.4199683359 0.5179912012
0.2511780383 -0.3509546243 0.3516877132
0.1256102865 -0.3452539346 -0.0058256193
-0.4580302248 0.5332407853 -0.3386427033
-0.1593507757 0.2415244490 -0.1394037214
0.1215767483 0.0341403407 0.0364345611
0.4869988275 -0.3351320813 0.4525166389
0.4591174307 -0.3092779036 0.4245331031
0.0138543302 -0.2543544472 -0.1231565575
-0.1940116371 -0.3623648074 -0.3738372068
0.0605744434 0.4207447479 0.2027425762
0.1711828713 0.0848265934 0.1657904338
0.1712843228 0.0740586951 0.1575559175
-0.3999773019 0.2469861573 -0.3023099504
0.2334906722 0.1186388127 0.2226631855
-0.4415104586 0.4345706161 -0.3846314740
0.0555061429 0.5967375888 0.3160782401
-0.4750244114 0.2997438091 -0.4468662144
0.0367086633 -0.2627232091 -0.0502637574
0.0535879872 0.6739515255 0.3322746583
0.0892172229 -0.1149438760 -0.0190712429
0.1576325287 0.1886847307 0.1648012301
-0.0577519118 0.1398379658 -0.1749585947
0.0783737132 0.2586986423 0.1665863483
-0.0016335841 -0.1920475643 -0.0967530322
-0.6897510546 0.3429300207 -0.2406369967
0.5883908939 -0.4544119431 0.5002575457
0.3110592923 -0.1949269441 0.3266812024
-0.3952503161 0.4072865781 -0.3405669173
0.2108960500 -0.1083419413 0.0875260900
-0.2603783424 -0.4800150878 -0.4590609557
0.0262147685 -0.1547816759 -0.1022394675
0.0135224557 -0.2629363977 -0.1267513906
0.0373903463 0.6598861764 0.3181313883
-0.4288361503 0.4684961608 -0.3316897162
0.5939504455 -0.5490681641 0.5390813460
0.1297621739 -0.2324955207 0.1446800219
0.1809451409 -0.2886044169 0.2162041450
0.3129673164 -0.2366717278 0.3843313162
0.1157876424 -0.2893617786 -0.0653460872
-0.0197427899 -0.0113600885 0.1125442509
-0.1392296385 0.0902733224 -0.0017258415
0.0030564415 -0.2843649865 -0.1413080948
0.2893788043 0.0916131234 0.2750388836
0.0478564330 0.4975537021 0.2452405687
-0.4513026353 0.2978132476 -0.4213293997
-0.5124271666 0.4466615755 -0.4821358376
0.1758639002 -0.3939146271 -0.0594039424
-0.0397719619 -0.2987226259 -0.1488192194
-0.4799367845 0.2276440839 -0.4757258620
0.3033851903 -0.2408732605 0.1754094486
-0.1143510619 0.0574984079 -0.1821479357
0.0177621266 -0.3443469759 -0.1203077584
0.0710233026 0.3302388517 0.1760693446
-0.2414939785 0.1178342810 -0.1113630266
0.1503031520 -0.3030028726 -0.1118899796
0.2793855639 -0.3852825789 0.3374601889
0.2578028489 0.1287925292 0.2039565384
0.6083007824 -0.5106339389 0.5293263405
-0.1210095744 0.1695922573 -0.2415167736
-0.4935770964 0.3916931052 -0.3930807839
0.0986012512 -0.2923762549 -0.0001867211
0.1411671111 0.1755268926 0.2047079319
0.0951969347 -0.3439643572 -0.0842708613
-0.4302075609 0.3344471151 -0.4263823177
-0.0803295475 0.0599235650 -0.1755396665
0.0818251690 -0.3258902816 -0.0394642945
-0.1303960572 0.2146762912 -0.2392362562
-0.0818342522 0.1918277140 -0.1196654491
0.1540025497 0.1681876680 0.1951636092
0.0286194286 -0.1524932435 0.1196946919
0.0759272899 -0.1969905855 0.1614012836
-0.4796168872 0.3388814600 -0.4577564864
-0.0350427755 -0.0511401219 -0.0632847781
0.2601686404 0.1402185057 0.2002485114
-0.0778416809 0.1625765676 -0.1925667445
-0.0595088210 -0.3102834468 -0.2128668491
-0.1008702114 0.1426917385 -0.0186358063
-0.0924717996 0.1226623004 0.0024184528
0.0461732444 0.7335037734 0.3564527120
-0.3407515985 0.2218675725 -0.2045701591
-0.4612132541 0.6761052285 -0.2764458305
0.1425619130 -0.2946583775 -0.1161289699
0.0665874863 -0.2819739514 -0.1190221660
0.1820679912 -0.3291172318 -0.0139178374
0.2958484711 0.0934157158 0.2972449897
0.1148639826 -0.1654848855 -0.0150067145
-0.5512174569 0.2114860286 -0.5475347252
-0.0384081377 0.0617698426 -0.1547953742
0.3837160415 -0.4724979606 0.4083206729
-0.4395530635 0.2983298285 -0.3416528537
-0.0521729081 -0.2771832320 -0.1661839338
0.4240347129 -0.3962305070 0.5368954018
-0.1203960926 0.2297652844 -0.1872838204
-0.2375193043 0.1810601729 -0.3063376413
0.0310918637 -0.2204684555 -0.1035034298
0.1985736767 -0.0951966085 0.1852976399
-0.1392210624 0.0502520173 -0.1724359246
-0.0562817098 0.1639694938 -0.0772217493
0.5017435138 -0.3849840985 0.5283874860
-0.5916225142 0.3406412730 -0.2878238534
-0.6186188455 0.3429206390 -0.2799667265
0.0090041981 0.0592718410 0.0690095972
0.4084729952 -0.4918729170 0.4244451475
-0.4107701403 0.4089909363 -0.3309162246
-0.1643791427 0.0921083183 -0.2191638769
0.0378677085 -0.3141219652 -0.0638473105
-0.2534231547 -0.4520347487 -0.4458210367
-0.0359177981 -0.2062475480 -0.1472043597
0.0040093871 0.0856190924 -0.1134954897
0.0743616264 0.0263578328 -0.0422829502
0.0962231444 -0.2643586871 -0.1277374398
0.1754637273 0.0664896070 0.2268609539
0.1629504818 -0.2515314540 0.0568090840
0.5515276463 -0.3929645653 0.4749775756
-0.0686093764 -0.2861894970 -0.2271065671
-0.5386928753 0.2739195695 -0.5218307054
-0.5419281033 0.3000468417 -0.5224517196
0.1284080554 0.3760154390 0.2888203832
-0.0657942988 0.1507570947 -0.0400827456
0.5321943799 -0.3966549505 0.5218926620
0.0840358211 0.4528149272 0.2530086068
-0.0746311950 -0.2068644429 -0.2042823591
-0.1305819617 -0.4043576932 -0.3039255282
0.0851945066 0.0426383277 0.0641244454
-0.4394240564 0.4235252190 -0.3882238008
0.0684433858 0.1677800720 0.0888077608
-0.3977706515 0.2745958788 -0.2343816503
-0.4946472998 0.4347102221 -0.3986480548
0.1452782963 0.1560089097 0.2325553880
-0.1727729039 0.0776330212 -0.2005461565
0.1879202218 0.0470129396 0.1692810864
0.1967459175 0.0125028223 0.1597731668
0.2406279846 0.0801897745 0.2610875152
-0.0232332663 -0.3385145506 -0.1369529730
-0.0712460571 -0.3622848323 -0.1963984617
-0.5673054981 0.2368763263 -0.5679239464
0.1648390326 0.2003266620 0.2374426882
0.1912775561 -0.0083382717 0.1321421932
0.2591039882 0.1216219916 0.2830860549
0.1834742890 -0.2591354166 0.1593354844
0.3158590655 -0.1972075195 0.1927019709
0.3792053065 -0.2538672140 0.2552607318
-0.0370805608 -0.0150231212 -0.1088234105
0.1432265060 -0.3280718099 -0.0591341999
-0.5006859501 0.2130180461 -0.4990844964
0.1324160937 -0.3280317433 -0.0606740296
-0.4215280815 0.2888785055 -0.2853808076
0.0720597857 -0.1256711958 0.0058577124
0.1948780397 0.0715969120 0.2118675825
0.1621337636 0.2347997132 0.2646849184
-0.0267241754 -0.3832250587 -0.1623375015
-0.2921574589 0.2537527150 -0.1584112965
-0.4654426670 0.6588271035 -0.2827079061
-0.0378637345 0.0169447808 -0.1446325969
0.0836028112 0.3279017836 0.1811820219
0.1096337133 0.1179894215 0.1583241040
0.3450027688 -0.4131417483 0.3242869976
-0.5600844216 0.3521005144 -0.2836474478
-0.4653724384 0.3317912245 -0.2871029009
0.1144978203 -0.1584093911 -0.1087519812
0.1353413869 -0.0285788296 0.1319099737
0.0585055631 -0.3069657119 -0.0857128588
-0.0653253570 -0.4112660801 -0.2190411062
0.2357518542 -0.1477863552 0.1067307847
-0.4127942723 0.2723307089 -0.3989091024
0.1310627033 -0.1873523430 0.0727631164
-0.5298404629 0.4492219872 -0.4515027703
0.0835437756 0.0308915585 0.0818060942
0.1417682573 -0.3051455565 -0.1038548239
0.1744195147 -0.3081042793 -0.0903970322
0.4038743960 -0.2714446950 0.2836382805
0.1399547210 0.1533458230 0.0364254698
-0.5337899038 0.4488564043 -0.4623728497
-0.1700284335 0.0472670593 -0.1576903434
0.3400228023 -0.4324317957 0.3658944004
-0.2342133538 0.3073290838 -0.2987846131
0.2885323902 0.1408666925 0.2056136255
0.1450715260 0.1584609660 0.0209474500
-0.0922356095 -0.2402088433 -0.2305974689
-0.0818987094 -0.2550584756 -0.2248892112
-0.1988642189 0.0977028760 -0.2209755540
0.2869854435 0.0549549788 0.3039276568
0.0057358989 0.0394312801 0.0909374667
-0.1646567448 0.2538564085 -0.2602238478
0.0603482157 0.5705393900 0.2838792931
0.0534437290 -0.2298730105 -0.0816799929
0.1094331544 -0.3325508245 -0.1176898463
0.2326736202 0.1129154729 0.1748761849
-0.3099502455 0.1638682955 -0.1980178265
0.2845642878 0.0622908221 0.2138415803
-0.2750736077 0.1911314653 -0.3154931907
-0.5533140117 0.3155188255 -0.2380719529
-0.5131104528 0.3157913971 -0.2478510490
-0.7320325333 0.3661614773 -0.2438598648
0.5032089479 -0.3479148189 0.4615271867
-0.5362417519 0.3319602823 -0.2606752917
-0.5893445124 0.3423840458 -0.2575406273
0.2027363741 0.0570129802 0.2368130562
0.1897897925 -0.2296178545 0.0858504977
-0.1284107911 0.0709924075 -0.1964002387
0.0252076054 -0.1012446042 -0.0684308185
-0.1636339069 -0.4168275901 -0.3152247889
-0.0726023476 -0.4048395192 -0.2318002063
0.1675708130 -0.1771696732 0.0422440717
-0.1858298890 -0.4824946285 -0.3715856054
0.3675645345 -0.4659445403 0.4196497631
0.2022336240 -0.0759024625 0.1936484400
0.2050657823 -0.0923958310 0.0861736844
-0.2112134668 0.3022750794 -0.2461305472
0.4441077799 -0.4801364177 0.3896084906
0.0721962591 0.5504400156 0.3172144903
0.2083977371 0.1413448495 0.1604570881
-0.3345732010 0.2940488674 -0.2026714569
0.5194179715 -0.5037968948 0.4274805712
-0.1574975856 0.0434486595 -0.0270946187
-0.1350626284 0.0170364676 -0.0098503282
0.1572805250 -0.2860413660 -0.0488829381
-0.0890085077 0.1300312572 -0.2094109378
0.2751312560 -0.1444178540 0.1676366615
0.0545590091 -0.0700858868 -0.0637989383
-0.4541108439 0.6367513166 -0.2783649878
-0.4315578929 0.5197787434 -0.3084561214
0.0833682032 0.5839948854 0.3384069124
0.1335247513 -0.2511956468 0.2123093598
-0.3159323887 0.3655129149 -0.3401703251
0.1483707226 -0.2790417059 -0.0767066152
0.0921310355 -0.3447547512 -0.0433066123
0.0554133048 0.2613291183 0.1119592231
0.0498522787 0.3262476593 0.1411663884
0.0487544182 0.3568152482 0.1558427804
0.5864712427 -0.4925534615 0.4802330670
0.1141545405 0.3360524493 0.2308526303
0.0193586316 -0.0024582590 -0.1128861886
0.3833713245 -0.2366123117 0.3397043814
0.2885727643 -0.3114107276 0.4171845756
0.3641524343 -0.3836152063 0.4913617885
0.2401863688 0.1468866370 0.2556172675
-0.4542412833 0.2873899609 -0.2348580860
0.0463401103 0.6795520868 0.3425292062
-0.0275118222 -0.3672539938 -0.1791286153
-0.4538603140 0.3317496049 -0.4167759909
0.0760700167 0.3427367504 0.2140779240
-0.5093309416 0.3905812181 -0.4371487342
-0.4426679150 0.2995635695 -0.4296616990
-0.4120474392 0.2929103689 -0.2948313029
0.0961920527 0.3465981739 0.2545579528
0.1070270858 0.2766157368 0.2361656866
0.1426279986 0.1071618683 0.0430407357
-0.5699043261 0.3118571747 -0.2345578771
0.1638163276 -0.1303183956 0.2675045922
-0.2308774222 -0.4154774082 -0.4135155763
0.0280913447 0.6163398456 0.2728305999
0.4099082714 -0.3075965313 0.4581606318
0.1049440009 0.4553898088 0.3114538662
0.1564918907 -0.3795739276 -0.0319034377
-0.2018011587 0.2640220278 -0.2953640110
-0.2262097763 0.2851116277 -0.3074388590
-0.1303607100 0.1575769045 -0.0346614937
-0.2199351072 0.2402983866 -0.1225136637
0.2674331055 0.1284369333 0.2129962086
-0.1662431055 0.0989911853 -0.2268296941
0.3977390714 -0.3337537937 0.4864886114
0.1520522249 0.2673221306 0.2777527513
-0.3788176329 0.4073236351 -0.3487280097
0.0531484520 0.4261746175 0.2139787195
0.1522748307 0.2676425820 0.2630799897
0.1482050249 0.0716343473 0.1172264315
-0.4781428309 0.2536862770 -0.4612482607
-0.4818049449 0.2404415517 -0.4687443378
0.4275193240 -0.4871255080 0.5328710892
0.1403088351 0.2988605226 0.2550360341
0.1667869696 -0.2137564484 0.0462535974
0.0794944966 0.4927639856 0.3006374873
0.0601406302 -0.1458724543 -0.0678326865
0.0897306155 -0.1677002369 0.0609658943
-0.3118999305 -0.5282720735 -0.5235676219
0.1797197263 -0.0158975989 0.1066313140
0.0892747605 0.2199990929 0.1702919399
0.1538518211 0.0827374193 0.1340233326
0.1413541983 -0.3311096861 -0.1142626367
0.0684930129 0.6345236567 0.3365590031
0.2534251464 -0.1074102356 0.2087464188
0.4219022194 -0.3663678267 0.2961746796
0.0150175769 0.7010521569 0.2936845214
0.2597220732 0.0818968452 0.2044353670
-0.2564511189 0.1977477385 -0.3193981871
0.3269051681 -0.2130501846 0.3483575371
0.2689767440 -0.1603854052 0.2928045068
0.0766142719 -0.2474936987 -0.0007190662
0.1024263149 -0.2150901769 0.0378544089
0.0935889241 -0.1622307345 -0.0361322667
0.0947493150 0.3779275596 0.2679052875
0.1129275667 0.2729072838 0.2432084154
0.3163645409 -0.2969025343 0.4322576609
0.5651421688 -0.4350492745 0.4447505666
0.5403772884 -0.4845130096 0.4228985567
0.0496346881 -0.3006891427 -0.0852442760
-0.2263388697 -0.5079106925 -0.4087244321
0.1328598374 0.1415756947 0.2086534100
-0.4278927766 0.5058702811 -0.3283153894
-0.4580251853 0.6125448273 -0.3073969522
-0.4671012831 0.3900735556 -0.4318503659
0.1909607771 0.0178557090 0.1521971595
0.1730098844 0.1064369346 0.1863580844
-0.0560714010 -0.2873740289 -0.2054218212
0.0818995150 -0.1127696374 -0.0429906890
0.5048102737 -0.4818306432 0.5826238452
