-0.2447506598 0.2701979470 -0.0854292237
-0.2454344892 0.2514796509 -0.0823765951
0.4218735149 0.3736735348 -0.1248966037
-0.0399190589 -0.1564550504 -0.0025347324
0.3861870369 0.2989171632 0.0651769529
0.4733599728 0.3837979307 -0.0798707201
0.4906471640 0.4263625757 0.0412396758
-0.0477182029 0.0856586753 0.0533033937
-0.1020166875 -0.1556404689 0.0411549741
-0.1501212397 -0.2297413041 0.0736148703
0.5799636734 0.4909029163 -0.0588915315
0.5535574417 0.4167148170 -0.1998858457
-0.0818333321 -0.1943429517 -0.0021660872
-0.2759302648 0.7346557125 -0.1716997514
-0.3470974736 0.0908099993 0.0078155693
-0.2203280224 0.3826604140 -0.0958758622
0.2307750771 0.1313546420 0.0796186064
-0.0915290378 0.0075225677 -0.0624677244
-0.2873941258 -0.1286335216 0.0002296211
-0.2019011446 0.4762891949 -0.0990373921
0.2625492273 -0.3267465637 0.1421707728
-0.2114060453 0.2482230067 -0.0532264827
-0.2457897455 0.4508881091 -0.1033971247
-0.1644394761 -0.2690544382 -0.0400541523
0.2812363412 -0.2384602886 0.1243022996
0.3763124105 -0.2727731584 0.1487780616
-0.3104253041 0.0820297504 0.0392970402
0.2279882855 0.2283108698 -0.0651824965
-0.3091370257 0.6049863973 -0.1508190083
0.3279497428 0.3529933446 0.0660122019
0.5081733151 -0.2948725916 0.1905636589
-0.1859988568 0.1679330753 -0.0407888171
0.4065435649 0.3280227360 -0.0295226578
0.1665379704 -0.1053477183 0.0968860848
0.3369804373 0.6237107714 -0.0914237880
0.4194490576 -0.2424192271 0.1598081888
0.2301343723 -0.2991760994 0.1171547554
-0.2744306680 0.7440430722 -0.2218300896
0.1021793347 -0.0105612638 0.0469243555
-0.3317068082 -0.4130582664 0.0058124769
0.5061347284 0.3975722112 -0.0416956586
-0.4091894015 -0.3741558888 0.0532887638
-0.1634782593 -0.1266653803 0.0725295529
-0.1851723473 -0.1525642039 0.0710759001
-0.3338278412 -0.2975856391 0.0591556819
-0.2909831551 -0.0406872607 -0.0170662450
-0.2658011951 -0.1537585613 0.0038131656
0.1530888943 0.2608432180 0.0172455942
-0.1104904180 0.0236000384 0.0398003001
-0.0254730925 0.0113132607 0.1465319917
-0.3356485657 -0.4221369917 -0.0041635488
0.5006937251 0.4231941416 0.0320077213
-0.3145196060 0.5191507353 -0.1401397042
0.5577249582 0.4419111007 -0.0578584939
-0.3441762389 -0.3947847534 0.0339401292
0.3706369425 0.5689291260 -0.0549450812
-0.1911288738 -0.2456162470 0.0747147693
0.3949702294 0.2948655110 -0.1278631465
-0.4527810100 -0.5123455180 -0.0969066337
-0.2881049103 -0.1440512961 0.0040501589
0.0231245222 -0.3192067820 0.1161763623
-0.2714471441 -0.1614498728 -0.0806509282
-0.2909703545 -0.1802758668 -0.0830811678
0.4982949797 0.4492549494 -0.0463749820
-0.2649525013 -0.1366890250 0.0466544532
-0.4228346213 -0.2688872707 -0.0306760944
-0.6728179380 -0.6233989285 0.0103256377
-0.2921462424 0.7029823119 -0.1758277698
-0.0997219499 -0.1524646472 0.0764995816
0.2078848758 0.0729362368 -0.0024595758
0.1439409239 0.0148340020 -0.0126895471
0.2916173645 -0.2651860997 0.1279971660
0.4202018351 -0.3041237518 0.1609536595
0.2990923606 -0.2711607546 0.1301696783
-0.1271587509 0.1135884273 0.0107419842
-0.0308434847 -0.0006173698 0.1300418544
-0.3605492049 0.0770218997 0.0181889442
0.5543704890 0.4271952491 -0.1790208303
0.3443012931 0.4101992725 -0.0006638246
-0.1485540749 0.1657641900 -0.0169797130
0.3180297802 0.5776725046 -0.0882334947
-0.3268013045 -0.1888804565 0.0071923355
0.2079113659 0.1310625511 0.0902544733
0.4595081244 0.4047789863 -0.0222877826
0.4701548468 0.3912158444 -0.0963645881
-0.1094331577 -0.0100170153 0.0159808378
-0.5959036804 -0.4925145991 0.0281417603
-0.1443453419 -0.0635124581 0.0614533469
-0.0332545411 0.0058581608 0.1104768065
-0.6410204925 -0.5104504521 0.0088554404
-0.5614376491 -0.5367983845 0.0366364315
0.3268320181 0.2773445176 -0.1443985378
-0.4383255429 -0.5348392755 -0.0654563822
-0.1573737068 0.2484658817 -0.0489204584
0.4271866577 -0.3197331204 0.1789651877
-0.1813393574 -0.2328682990 0.0233996317
0.3747702300 0.2712055678 -0.0740691440
0.3267903211 0.2389205078 -0.0652732436
0.3558992094 0.2753211291 -0.0378231081
0.4130698372 0.3604390335 -0.0653616590
-0.2756309529 0.1229227850 -0.0677951832
0.2353397558 0.1707276977 0.0974713216
0.4072165305 -0.2864240433 0.1568360501
0.3534484889 0.2381487855 -0.1384739852
0.0684237596 -0.1850963919 0.0707687367
-0.2413609690 -0.3009667519 0.0419781385
-0.5547655948 -0.3922597209 -0.0548277543
0.2218563772 0.2520438718 0.0950128076
0.2971545387 0.1705226142 -0.0156724956
0.5725427580 0.4917114447 -0.0851472009
0.4458279658 0.3810584516 -0.0572937407
-0.0465299174 0.0375569089 0.1356893888
-0.0009741442 -0.1233253763 0.1753270023
-0.0948271146 -0.1021568144 0.0775809067
-0.3414162299 0.0690964877 0.0382196067
-0.0955170912 -0.1618603147 0.0327534138
-0.1004962288 -0.0427508707 -0.0884640001
-0.3350424990 0.0247730225 0.0395072519
0.4055866662 0.3399884493 0.0666187335
0.0490189501 -0.1362431872 0.1417727989
-0.2262445845 0.1090175953 -0.0246127487
-0.4491770524 -0.3006229585 -0.0048471525
-0.2985603863 0.4822722698 -0.1387840615
-0.1806564323 0.3284883230 -0.0711517400
0.4191158501 -0.2324016724 0.1757297357
0.1124082651 -0.2296515735 0.1053920203
-0.2739731672 -0.2821733506 0.0606266864
-0.0271815059 -0.0531398519 0.0878392016
0.2851006913 -0.2759669598 0.1450122425
0.2683082907 -0.2744185450 0.1415322338
0.2546322589 -0.2673977397 0.1378621285
0.0525840612 -0.0066524711 0.0985964483
0.3366412738 0.2571233278 -0.1386416831
-0.2068353825 -0.1236634954 -0.0896842833
-0.0513887131 0.0209973713 -0.0758360217
0.0788320816 0.1518706375 -0.0584666589
0.1257791943 0.1904815194 -0.0573195450
-0.1314456761 -0.0583623929 -0.0858592491
0.4288223858 -0.2639120037 0.1618299480
-0.5776044321 -0.4242940731 -0.0062459736
0.3289767332 0.2973393392 -0.0495258304
-0.4455542890 -0.5288090489 -0.0577252981
-0.2124248141 -0.1123723825 -0.0803574231
-0.0459434415 -0.2135016464 0.0849560549
0.5296258435 0.4082460469 -0.1821741428
0.5312460826 0.3525280302 0.0375827705
0.4796971108 0.3751091438 0.0343205839
0.3629720091 0.2968881237 -0.0287262869
-0.2302277200 -0.1285176076 -0.1008399727
0.1895341216 0.0835451328 0.0680464252
-0.1708934733 0.0277480278 -0.0166736405
-0.6383545711 -0.6422553413 -0.1030174542
-0.0824399742 -0.1291018135 0.0656346128
0.1024425100 -0.2488087346 0.0825634229
0.0020582096 -0.0832186821 0.0545539750
-0.5814390557 -0.4982740783 0.0615322022
0.2717635504 0.2740976758 0.0947600677
0.2905019210 0.2015277850 0.0856482532
-0.2279396426 -0.1372028148 -0.0879166636
-0.2947120378 -0.1974674556 -0.0927448300
-0.1366038715 -0.0467146275 -0.0765149508
-0.0903687137 -0.0021174147 -0.0714598174
-0.2565938928 -0.1563575401 -0.0859888185
-0.0687743092 -0.2190906955 0.0427182902
-0.1693336901 -0.2522537117 0.0316822846
0.6271284260 -0.3879055846 0.2222269469
-0.2656337547 0.0167863937 -0.0458462023
-0.2420382634 -0.1274836987 -0.0105580671
-0.4221425213 -0.2714047118 -0.0116051748
0.0299471489 -0.0931799696 0.0900837542
-0.0227011498 0.0877930544 -0.0366514477
-0.2812255925 -0.2212480004 0.0606885601
-0.4600829204 -0.3892658753 0.0466155798
-0.3287820283 -0.2655264414 0.0568384208
-0.0651581541 -0.3606365088 0.1329448077
0.0049447126 -0.2595133624 0.1401594906
0.3365264150 0.2527840682 -0.0728149281
0.3105763273 0.3667714023 0.0320944944
-0.2187567040 0.0026813908 -0.0290441305
-0.1574382139 -0.1156306215 0.0726706899
-0.2740774796 -0.2299302070 0.0633536310
-0.2877215951 -0.2337575736 0.0616672894
-0.5628369900 -0.4947069586 0.0879483415
-0.4311487330 -0.4842968040 0.0201665970
0.1240668111 -0.1926061674 0.1135372554
-0.0472187452 0.0215280187 0.0719440794
0.3736345909 0.4383430433 -0.0001122807
-0.3506561142 -0.2086499526 0.0012482749
0.3877505909 0.5497804158 -0.0434575772
0.3641481366 -0.2298748717 0.1453560502
-0.1698383351 0.3495042568 -0.0695019518
-0.7105228379 -0.6025375778 -0.0065442699
0.5801679485 0.4931839755 -0.0753890128
0.0703908920 -0.0194864014 0.0824788066
-0.1643623544 -0.0295118503 -0.0041618279
-0.3756935635 0.0362530523 0.0381374634
0.3693689926 0.3194971136 -0.1251791889
0.3193722304 0.5717671726 -0.0780079010
-0.3814905927 -0.2213272514 -0.0456979747
0.3067646605 0.2766234846 -0.0959674335
0.5254638430 0.4782591568 -0.0068491486
-0.5540066723 -0.6183696686 -0.0401105147
-0.4398983198 -0.3057380271 0.0153716333
0.3373900125 0.3760757342 0.0471143591
0.5908390445 0.2862277946 0.0432084396
-0.1456681222 0.1255710123 0.0743403655
0.2552735610 0.1208733974 -0.0096074681
-0.3282278608 -0.4231410838 -0.0830463827
-0.2785085765 -0.3229982907 0.0461516546
-0.2652803537 0.3247082310 -0.1013270306
-0.2408593681 0.1680359930 -0.0663188681
-0.2569488214 0.2844756641 -0.0917340006
-0.2388115903 0.4961519468 -0.1112368188
-0.7115221423 -0.6791286808 -0.0674321535
-0.3604517581 0.0452444829 -0.0397642967
-0.2426013094 0.6297561405 -0.1403677313
-0.2256811529 -0.0780922924 -0.0054284330
-0.0138819764 0.0950653515 -0.0373917466
0.3348554614 -0.2082395807 0.1381133984
0.4186057115 0.4675061170 0.0048713327
0.4337116269 0.3333352941 -0.0103808692
0.1785101947 0.2743650889 0.0463857447
0.6543707813 0.2404696379 0.0409898259
0.5361646397 0.4658503802 0.0070621887
0.0844807405 -0.2413590297 0.0969225829
-0.1587184036 0.2300716955 -0.0466821320
-0.1374743478 0.1246375746 0.0923323528
0.3471708319 0.3607432742 -0.0315507654
0.4894128335 0.3618257857 -0.0566472411
-0.2507114215 0.1039797251 0.0084078636
-0.7045021161 -0.5549736653 -0.0559963633
0.3390821520 0.2827113624 0.0209087393
-0.0668417176 -0.1165063195 0.0886575445
0.3468756169 0.2526229384 -0.0629852391
0.4988648381 0.3765078563 -0.1648344415
-0.4522569285 -0.4993376418 0.0219008949
-0.2806462755 0.0377875326 -0.0229046055
0.0096293156 -0.0934970213 0.0669793292
0.2149908128 -0.1480945615 0.1076230458
-0.1390246136 0.0586214892 -0.0092275773
-0.3849641227 0.0188103815 -0.0419928608
-0.1436006558 0.1102529934 -0.0203103179
0.5853841878 0.4329985508 -0.2409810661
-0.1388460544 0.0908885454 0.0237948153
-0.0668138115 -0.3515178334 0.1405415668
-0.5687742906 -0.5735279515 -0.1240835692
0.0253713672 -0.0797311307 0.0666726796
0.5172405981 0.4698127950 0.0317728209
-0.2173847289 0.4312250492 -0.1025221731
-0.0387813204 -0.3398566463 0.0971907524
0.0124071432 -0.1200275790 0.1721361463
-0.3675705639 -0.4588568876 -0.0411658560
-0.2632337686 0.3581455495 -0.0885011506
0.3389012710 -0.3237764287 0.1444121360
0.3623264670 -0.3364663151 0.1675921582
0.3533701149 0.2224936196 -0.0897146912
0.0793707379 0.1476848423 0.0774332743
0.0254260402 0.0903793722 0.0769964999
-0.0238940740 -0.3190401909 0.0915635000
0.3943381310 -0.2317133935 0.1584660924
-0.1527882763 0.3414875693 -0.0599762462
-0.4242094011 -0.5338498425 -0.0207177915
0.7000885646 -0.3471508034 0.2231545393
-0.0619529615 -0.2773708644 0.0645871449
0.4930097242 0.4262994348 -0.0389821232
0.3607008947 0.6304237608 -0.0856754148
-0.4207009167 -0.4543265311 0.0340622072
0.2976878753 0.3937419069 -0.0242824239
0.4532924855 0.4308939869 -0.0211669995
-0.3435156774 -0.2345836817 0.0381425204
-0.2940925932 -0.1361201315 -0.0010503575
0.2182274671 -0.1848947420 0.1177605478
0.0949119791 -0.2721477033 0.1071813883
-0.0369456708 -0.1113867438 0.0800674494
-0.2354207139 0.1913020552 -0.0472949847
-0.2690852255 0.4629296917 -0.1114813604
-0.2924956770 0.6524795636 -0.1562791732
-0.0209468296 -0.3693572382 0.1139767237
-0.0436963902 -0.1021076950 0.0454828679
-0.6195596312 -0.5296918606 0.0275675747
0.0825025438 -0.1069644574 0.0912586966
-0.0444114991 -0.1565509222 0.0443388217
0.2330623424 0.1099125763 0.0573559288
-0.3911711442 -0.4730684118 -0.0694381404
-0.2432789901 0.1958901569 -0.0501896895
-0.2520002808 0.3116020070 -0.0761348007
-0.3828912512 0.0003900637 0.0388290633
0.5550247241 0.4171497346 -0.2162908776
0.4519735330 0.3353272000 -0.1953406083
-0.3871665762 -0.2440419520 -0.0600412147
-0.5769631229 -0.6187475471 -0.0935397840
-0.0958305387 0.1191770821 0.0004397209
0.0858281539 -0.0407316371 0.0820904291
-0.7295650294 -0.6809331709 -0.0641373441
-0.5998738745 -0.5644367026 0.0309129898
-0.0505401311 -0.1513397453 0.0515013724
-0.0893750015 -0.2013914145 -0.0033362381
-0.1542789105 0.0764717611 0.0006536473
0.0371988414 -0.1013808725 0.1162958183
-0.0487903370 -0.2699792695 0.0553184783
0.4269771200 0.2786748818 0.0371333388
-0.0665066531 -0.3619673322 0.0904953216
0.5419934881 0.4834821452 -0.0613938248
0.3840959616 0.3493278539 -0.0191879708
-0.0017258234 -0.3004773982 0.0981183756
-0.1763974478 0.1669785717 -0.0445488742
-0.1572676102 0.2913927421 -0.0553094869
0.0581600035 -0.1083608713 0.1559058682
0.4699862078 0.3830066698 -0.0137705167
0.5826042397 0.4835552734 -0.1005595250
0.5193281577 0.4020316646 -0.1765961884
0.5170627281 0.3443548819 0.0407513037
-0.2016963935 -0.0508236035 -0.0132138861
-0.1866112479 0.1606039345 -0.0473144342
-0.0214578965 -0.0809770722 0.0799104946
0.2933608249 -0.2991647632 0.1312335101
0.1764735874 -0.1361671198 0.0971788052
-0.2273228498 -0.0124362098 0.0119783347
0.2849836178 0.1477391241 0.0044824253
-0.0042435751 -0.1301489957 0.0841518860
0.0078773177 0.0822116664 0.0712642510
-0.6333900883 -0.5438692945 -0.1238828383
0.3828220370 0.3292223215 -0.0393196641
-0.1703561364 -0.2211261887 0.0286768420
-0.2495070677 -0.1089496596 0.0427801358
-0.2667246677 -0.1432232222 -0.0703708281
-0.3760150595 -0.2481301555 0.0218778534
-0.2455842811 -0.1156110596 -0.0142655051
0.2803905925 -0.3318822802 0.1417578780
0.6076365470 0.4403631910 -0.2731574611
-0.0867040201 0.0197774832 0.0630803811
-0.1841637553 0.3718374822 -0.0730235460
-0.2166993103 0.0147133268 0.0073487120
0.3345560505 -0.3404769111 0.1523920826
0.3951238711 0.2944432159 0.0364917547
0.1708231247 0.0951322690 0.0861523992
0.3303075160 0.2492402540 -0.0631046027
-0.1866285797 0.4492417573 -0.0901260762
0.0128278908 -0.0911597156 0.0829375805
-0.1640440382 0.0821148359 0.0865421032
-0.2851120943 0.7277207724 -0.1869686534
0.1507343623 0.2194299403 0.0801708593
-0.0225651775 0.0743691239 -0.0534519257
0.0143676762 -0.1170379593 0.1434512738
0.0664184980 0.1618533551 -0.0405938632
-0.1369310076 -0.0311426502 0.0063979943
0.0288618367 -0.0368494145 0.0955258918
0.4399107636 0.3328470919 0.0210195789
-0.0897061061 -0.1361602912 0.0640505409
-0.0842705099 -0.1723316522 0.0702540942
0.4648874141 -0.2543899874 0.1754440336
-0.1170575713 -0.2155165730 0.0233922700
0.4641457013 0.3449080022 -0.0696047964
-0.2865514781 0.4892832381 -0.1367885658
-0.2777844171 0.3754215714 -0.1139654649
-0.2697783029 0.1604159929 -0.0731368656
0.0001952006 -0.2045886363 0.0897092954
0.2736934293 0.2501757746 0.0993518816
-0.3272513283 0.0807608815 -0.0309209214
-0.2946644853 -0.3378526077 0.0447957692
-0.3533430880 -0.4483570878 -0.0681291117
-0.2555256662 0.4600035669 -0.1075985046
0.2123680403 0.1491299524 0.0955708470
0.1128246151 0.2232651360 0.0225744151
0.2521455691 0.3190709816 -0.0193546853
-0.5325950893 -0.4008728324 -0.1011637764
0.5865425641 -0.3336025289 0.2117464557
0.2732916361 -0.2415979109 0.1375091194
-0.0592588037 0.0197514290 0.1068627079
0.1072869671 0.1879497351 -0.0485529204
0.4513003093 0.4107668499 -0.0934421972
0.0453873124 -0.2469385510 0.0970651908
0.3686284899 0.2531755392 0.0480504888
-0.3965671621 -0.3176801800 0.0483744298
-0.4766268284 -0.3914476008 0.0416812124
-0.2803427383 -0.2046145474 0.0564568301
-0.3872529477 -0.2984617819 0.0462512706
0.0646951268 -0.0312663060 0.0828686938
0.0130120063 -0.1173383916 0.1538716596
-0.2414420134 0.0872677875 -0.0232012921
0.3435417282 0.3426103333 0.0109699262
0.2201408667 0.1685395248 -0.0683896708
-0.5482523958 -0.6064549718 -0.0834663882
-0.1756265931 -0.2612341963 -0.0700319572
0.0921057693 -0.0251375769 0.0366634787
-0.2513859751 0.5931680972 -0.1420014447
-0.1933650351 0.4844396066 -0.0997349271
0.0897350328 -0.1950657759 0.0991489855
-0.3013954092 0.5798039075 -0.1436486267
-0.2055273625 -0.0915384714 0.0268121878
0.3324415752 0.2651893061 -0.0458567397
-0.1951355911 -0.0838417043 -0.0670998779
-0.2759852437 0.0674707686 -0.0581777235
0.4861818356 -0.3004987540 0.1767037904
0.0316281764 -0.0747107076 0.0631986653
-0.1005323058 -0.0228282424 0.0649637083
-0.2248230317 0.4399160975 -0.0836009692
-0.0673518864 0.0458675474 0.0631201745
-0.7181644820 -0.6020371644 -0.0853612136
0.3764837999 -0.3394649226 0.1706666913
-0.1401113415 0.1446202997 0.0952691976
-0.6362784729 -0.6667497519 -0.0384350032
0.0487123037 -0.2544250799 0.1208000876
-0.1435200423 0.1063026022 0.0610644693
0.3639805827 0.3417891022 -0.1139908403
-0.2970418434 0.4091056580 -0.1249968478
0.0505384790 -0.2608215859 0.0716598222
0.4453076832 0.2879334792 0.0381197488
-0.3431486447 -0.2037858743 0.0055219953
-0.4768387604 -0.3211161564 -0.0202321188
0.5186313403 0.3802223524 -0.2355318390
0.5507152920 0.4485163976 -0.0982826983
0.5084585830 0.4426399881 -0.1152323812
0.1631736358 0.2660467305 -0.0031510324
-0.2855825236 0.0922638428 -0.0198555758
-0.5486185191 -0.4984026317 -0.1348313142
0.3141080493 0.2808741209 -0.0307077757
0.1176960653 0.0454350587 0.0843344202
0.0961076108 -0.2296432077 0.0979580521
0.5175707550 0.3963441868 -0.1621797275
-0.2896536355 0.4146011582 -0.1068551931
-0.3213568447 0.0175938488 0.0285746412
-0.3054714269 0.0970778263 -0.0159530577
-0.2714553438 -0.1568716751 -0.0070848412
-0.0127029886 0.0996741162 0.0453927882
0.0608782893 -0.1273082231 0.1667168059
-0.1563061532 0.0920408805 0.0857209292
0.4133463080 0.3550655141 0.0376695058
-0.0553753669 0.1324809032 0.0204274281
0.3500146053 0.3533019797 -0.0362122535
0.3266397301 0.2041742793 -0.0142930999
-0.2254490069 0.0486966288 -0.0059698067
-0.4675151442 -0.4509179431 0.0457084499
-0.3678738436 -0.3501249435 0.0552229243
-0.6634610726 -0.5158383551 -0.0113648387
0.0772218244 0.1584769678 0.0701109947
-0.0325144177 0.0175989065 0.1191157492
-0.0861911544 0.0290659759 0.0171318712
-0.2563640246 0.1153588569 0.0171243367
0.5176674527 0.3667815134 -0.2591825024
-0.0573417847 -0.0555733789 -0.0955113999
-0.2682527339 -0.2490449399 -0.1131842126
-0.2691856973 -0.2674888530 -0.1121552869
-0.2894614305 -0.2720845096 -0.1147390586
-0.0279927865 -0.0370437933 -0.0925247009
-0.3676311637 -0.3430247883 -0.1213507608
0.3543340009 0.3302439925 -0.1192145283
0.1673835071 -0.1472751355 0.0943387845
0.3231337564 0.2589476447 -0.0482548988
0.5859324979 0.4732107789 -0.0687251649
0.0149112667 -0.1616218640 0.0581825270
-0.3857474744 -0.0022079121 -0.0036906292
-0.0632983194 -0.1151697329 0.0572783290
0.1405480841 -0.1336530999 0.0996964936
-0.1547898394 -0.0451440456 0.0021536040
-0.1412289565 -0.2323995165 0.0294102229
-0.2099541722 0.4801588152 -0.1015822623
0.0564278201 -0.1247678827 0.1804707089
0.1178103005 0.0028669898 0.0465205512
-0.0964258478 -0.2016504011 0.0351563947
-0.1864363563 0.0231214135 -0.0216811720
-0.4119345446 -0.3080054174 -0.1040771813
-0.5890926190 -0.5025593037 -0.1291044643
0.4246880089 0.3633813483 -0.1215432184
0.4981292838 0.3569725721 -0.0769326708
0.3126701109 -0.1930046314 0.1365896925
-0.1678361964 -0.0182756289 0.0085756326
-0.0370934539 -0.1366630020 0.0452519786
-0.3063897919 0.6492448861 -0.1591317854
0.4583096327 0.3927919879 -0.0298567300
0.0735256533 -0.1181858024 0.0728726291
-0.2498546041 0.2610832662 -0.0854629001
-0.2830587861 0.3607042293 -0.1127690307
0.6271905085 0.2983862968 0.0445313929
0.0033450699 0.1336470955 0.0356874381
-0.3932815948 -0.4831961632 -0.0683773644
0.3145012832 0.3701238877 -0.0240866783
0.0581661951 -0.1100884454 0.1788310588
-0.0036228979 -0.1135125240 0.0283848632
-0.2153684557 -0.0679688642 -0.0039855942
-0.3455697026 0.0232086823 -0.0204434827
-0.5768443146 -0.4464030022 0.0169040673
-0.7406753114 -0.6386670963 -0.0648842541
0.1228184578 0.2305754796 -0.0060973254
0.4908125657 -0.3321977976 0.1931310785
-0.1304130869 -0.0014672989 -0.0209085576
0.1018009492 0.0262619874 0.0926154258
-0.3127705775 0.5079457730 -0.1349662113
0.2949177490 0.1818046311 0.0692634674
0.1915339429 0.2783540144 -0.0203265392
0.0237440851 -0.0503066017 0.0928383584
0.2053028148 0.3010920212 0.0189039614
-0.1959065403 0.3498754790 -0.0809009449
0.4118459116 0.3099618293 -0.0534512723
-0.6697094823 -0.5651345387 0.0112033501
0.0023427047 -0.1513023508 0.0551926447
0.6159420540 -0.3288794427 0.2099022808
0.5423584774 -0.3682116529 0.2074841270
-0.0311986476 0.0168561094 0.0794938093
-0.0160058091 -0.3285218236 0.1064597874
-0.2888665637 -0.0700086390 -0.0173595619
-0.1835422269 0.0997781058 0.0950047573
-0.2779981950 -0.1531764321 0.0340135093
0.3490401433 0.3152840530 -0.0331542596
0.5223347806 0.4720759193 -0.0517271134
-0.3894410389 -0.4752850437 -0.0150237539
-0.3601411714 -0.3724322739 0.0498170511
-0.1066861411 -0.2065851271 0.0776542963
-0.7212588327 -0.6810244467 -0.0294527238
0.1276967450 -0.2236066980 0.0863296788
0.3039196606 0.3143231634 -0.0007371511
-0.2612917317 -0.1308127651 -0.0543740857
0.0563819282 -0.2456614211 0.1185610598
-0.1891437696 0.1816533838 -0.0332322316
0.0239693939 -0.2684337564 0.0671346692
0.2009386275 0.0877714845 0.0628254931
0.5718588664 0.2644967765 0.0318540306
0.4386597587 0.3770510060 0.0361890275
-0.2401980618 -0.2202677280 0.0675126454
0.1308018784 -0.1526036784 0.0854265416
-0.0452683548 0.0968449579 0.0285981209
-0.2605644026 0.7527438198 -0.2278124654
0.4092613667 0.3704972568 -0.0348467716
0.4402419861 0.4408026722 0.0352305655
0.1823782905 0.1402657727 0.0990405478
-0.2526798687 -0.2375590879 0.0656978236
-0.1686361564 0.1408864089 -0.0366944598
-0.3393990622 -0.0135274834 -0.0013660115
-0.4924996256 -0.5297833311 -0.1137967311
-0.0066795427 0.0766940158 0.0690340326
0.0417321787 -0.3035294210 0.1389202408
0.4501808274 0.3676852804 0.0277348635
0.2924824321 -0.1833194891 0.1311603866
-0.2044901265 0.0340650810 0.0055535101
-0.0281307216 0.0801403622 -0.0417763925
0.3195446635 0.3214388872 0.0114885774
0.3436788918 0.2234596513 -0.0988648573
-0.2080733539 -0.0758343219 -0.0393992749
-0.0879299732 0.0554075943 0.0409959908
-0.2905223632 -0.1304404293 0.0195527266
-0.3079033953 0.4862703385 -0.1399844023
0.2917835581 0.2656226384 -0.0568432388
-0.1535653372 0.0796466130 0.0865959493
0.1572486608 -0.1982972989 0.1087737306
0.3422239136 0.2402853342 0.0680537673
-0.1300275328 -0.0319166796 0.0598428018
-0.6547010335 -0.5063148295 -0.0896593191
-0.5537711427 -0.5299329858 -0.1331056809
0.3782501627 0.3572260431 -0.1083710400
0.4150286767 0.4063966867 0.0548117251
0.4080580543 0.4185013618 -0.0118477252
-0.3835514441 0.0479523478 -0.0284866829
0.6215102036 0.2907064494 0.0399333363
0.1325084621 0.2116119925 -0.0460333998
-0.1820146562 -0.1968558734 0.0752436206
0.4560016193 -0.3474810534 0.1733744102
-0.1781092270 0.2137171781 -0.0383418248
-0.0350098297 -0.3813353422 0.1204237227
-0.1808203301 0.0691032348 0.0026145852
-0.3079484375 0.3865413531 -0.1120865063
0.0323146367 -0.2864018883 0.1091236282
-0.0115235204 -0.3080727137 0.1010575474
0.1407886427 0.1821258298 0.0920023302
0.0169428377 0.0320849689 0.0880802338
0.0367499399 0.0444255724 0.0900961993
0.1790046685 0.2562142869 0.0726418774
0.1229031907 0.2205786446 0.0535755276
-0.3860554374 -0.0010934434 -0.0352535914
0.3633228132 -0.1982014009 0.1462495026
-0.2914640218 0.5830067210 -0.1417445057
-0.0105596518 -0.3617287076 0.1277720987
0.5426291548 0.4229609331 -0.1661198653
-0.0961122993 0.1078859868 0.0023466219
-0.6383559808 -0.5160537333 -0.1121090277
0.6173296584 0.2473828501 0.0432089498
-0.2405761860 -0.1102551747 -0.0500524905
-0.1739487882 0.2555138199 -0.0570140660
-0.2278980423 0.1665136777 -0.0402656232
-0.0257953601 -0.0119151596 0.0999443210
-0.3946118455 -0.3051468302 0.0456204305
-0.4575493846 -0.3765091573 0.0439857913
-0.3354675628 -0.2543054143 0.0515417570
0.0937252167 0.1945995801 -0.0277255297
-0.4259526405 -0.5109848526 -0.0289592165
-0.1305821571 0.1361363808 -0.0012273143
0.4218466535 0.3084471050 0.0241638105
0.0000836204 -0.0574020432 0.0802933639
0.3733311626 0.3394670499 -0.0224727201
-0.5820088587 -0.6209090981 -0.0057998839
0.0102906503 -0.2570938175 0.0630102606
-0.0707303918 -0.0933844812 0.0842430298
-0.5757161437 -0.4824606157 0.0721886614
0.1984997423 0.2693088130 0.0744361701
-0.2280799296 0.1200222546 -0.0400077355
-0.1031275692 0.1599607531 -0.0097844082
0.4116582139 -0.2375647044 0.1579217493
-0.2152088146 0.4449600855 -0.0886928000
0.4833067795 0.4637816370 0.0001207516
0.0662127548 -0.2539821097 0.1053452908
-0.3716467239 -0.0343618162 -0.0084200312
-0.3314139471 0.0938317871 0.0248686899
0.3794945140 0.3082215364 -0.1315253632
0.1276355713 0.1396198135 0.0969840448
-0.1281559020 -0.2384766171 -0.0136600808
-0.0087992384 -0.1268373861 0.0051433666
-0.2912721922 0.4167875154 -0.1250529900
-0.2326375356 0.5271028932 -0.1164187629
-0.2561318700 0.5237947512 -0.1327028681
-0.1963264216 0.2029461563 -0.0572734263
0.1310350773 0.2407600742 0.0177635873
-0.0649815378 -0.3555634119 0.1632123772
-0.2740283366 -0.3413200792 -0.0882017239
-0.2275967950 -0.3090420757 -0.0744400693
-0.3546670749 -0.4234555577 -0.0875974741
-0.3279732349 -0.3912725662 -0.0924690648
-0.4077238755 -0.4694393498 -0.0947569028
-0.1899145054 -0.2624159672 -0.0824852913
-0.3689730168 -0.4304281909 -0.0946100640
0.3907483459 0.2714477208 0.0061246769
0.0580343555 -0.2329418620 0.1545949516
0.1493538583 -0.1407648584 0.1012549149
-0.2571192490 -0.0976167694 0.0105132521
-0.1762039265 0.3120471767 -0.0667374686
0.4948022429 0.2671919132 0.0231134701
0.2387450289 0.2648764329 0.0944451666
0.3498960143 0.3491211428 0.0132638110
-0.1229189386 -0.2175198539 0.0482728283
0.4207547913 0.3860872600 -0.0931259871
-0.1562257129 0.1322033409 0.0661578831
0.3430682809 0.2323048997 -0.1280737309
-0.0337031893 -0.3303599080 0.1020328554
0.0397780601 0.0623968270 0.0894080276
-0.5052499912 -0.4228858429 -0.1246639690
0.5134712552 0.3843267110 -0.1810364386
-0.1183960253 -0.2287217800 0.0332991653
-0.1854273999 0.2972975003 -0.0575409579
-0.0193541391 -0.3208227089 0.1760796426
-0.3410616924 -0.4112571417 0.0178812109
0.4436421511 0.2514015614 0.0283150872
-0.1204922420 -0.1650409189 0.0600951966
0.3625739231 0.3593753353 0.0700988601
0.1039862773 -0.1095191142 0.0809924986
-0.1853991941 -0.2533841825 0.0696204604
-0.1024793419 0.0651945087 0.0279762880
0.5029542160 -0.2802315663 0.1870475222
0.2241760698 0.3133479756 0.0163939439
0.4330320005 0.4101420207 -0.0814478273
-0.4673034235 -0.3105969649 -0.0423596103
0.5482330052 0.4304686782 -0.0466630325
0.3495984284 0.4339124357 -0.0288227491
0.1394272947 0.0913171024 0.0927627066
0.0876553456 -0.2884417778 0.1067056430
0.4343961352 0.3144258804 -0.1114645634
-0.3582089890 -0.3581155551 0.0538160843
-0.5548535896 -0.4979588306 0.0453208759
-0.2900533097 0.0756196999 -0.0248520958
-0.4799859820 -0.3224543644 -0.0299991621
0.0521639937 -0.1936354754 0.0948883790
-0.2995892215 -0.3849555069 -0.0684560565
0.0883275286 -0.0218407670 0.0669014178
-0.1204877163 -0.2645488097 0.0671467217
0.2767355762 0.2642092979 0.0967587910
0.3538668690 0.2244497680 0.0209630590
0.2457762999 0.2119053815 0.1024054916
-0.1345601071 -0.2431336122 -0.0076773077
-0.4953705875 -0.4185167435 -0.1254896848
-0.5872613607 -0.5334703920 -0.1338036434
0.0702285143 -0.2463377103 0.1488527719
0.1809275126 0.2709532733 0.0566575296
-0.3656643948 -0.3898370315 0.0452037307
0.0148080247 -0.2348628238 0.0929796780
0.3698248184 0.2943508465 -0.0518486412
-0.2010007736 -0.3178806180 -0.0148351572
0.5523709647 0.3239485787 0.0420764426
0.2814580424 0.2562837091 -0.0905345407
-0.1062149256 -0.2002808681 0.0571753209
-0.0695870952 -0.3004533221 0.1375041477
0.4020942001 0.4105742699 0.0470802738
-0.5657077273 -0.5261785125 0.0383718426
-0.5017801978 -0.3443578019 -0.0556805880
-0.0414224032 -0.0011744079 0.1039518881
0.2287207560 0.1246407109 -0.0482838768
0.0941997175 -0.0141979810 0.0735720288
-0.2104730647 -0.0935160488 0.0333302083
-0.3986295336 0.0111819761 0.0348929396
0.0544229204 -0.1312207562 0.1314528422
0.1295575834 0.0016510942 0.0219535232
-0.3739844557 -0.4310040699 0.0255263622
0.4230416100 0.2967532720 -0.0667355441
-0.1132095213 -0.1839282026 0.0302967973
0.1856546022 0.1665529982 -0.0750580502
-0.2845597110 0.3064804013 -0.1033683860
0.3432022971 0.3018504191 -0.1236985029
-0.3235843940 -0.1782657223 -0.0306829667
-0.1739324816 -0.0393948686 -0.0131771140
0.0054751780 -0.3459276315 0.1280603591
-0.2266503729 -0.0645031616 -0.0184909740
-0.6325628010 -0.5073279067 0.0134344498
-0.1826621014 -0.0481557121 -0.0073965135
0.2970301818 0.2695947485 -0.1095310939
0.5465219757 0.4362767759 -0.1282182412
0.4589412626 0.4433060811 0.0401371936
0.0176960499 -0.2463412033 0.0633910848
0.1637317959 0.2674009211 0.0334491603
-0.2608912314 -0.1367092696 -0.0678204498
0.4522356972 0.4523652778 0.0058518384
-0.2324427412 0.0620184831 -0.0449870665
-0.1622966830 0.3120776428 -0.0556506493
0.0088976151 -0.2662504144 0.1671281197
-0.3213250808 0.1070724164 0.0037398148
0.1859948536 -0.2503506552 0.1220506318
0.4174289111 -0.3111920981 0.1758128683
0.5555155945 -0.3415694270 0.2070434861
0.4245635664 0.4015251874 0.0581961319
-0.2320794879 -0.0871205188 0.0336151797
-0.7333585670 -0.6720419036 -0.0696388844
-0.2083425275 0.3400770702 -0.0842842130
0.3530631530 0.3477196835 -0.0012549815
0.3306803259 0.3979570984 -0.0262883126
0.0300347239 -0.3178115826 0.1428616651
-0.1736481433 -0.0575289170 0.0419350178
-0.2380372651 0.5869937339 -0.1302834264
-0.6361937161 -0.5483701930 0.0237938162
-0.4101921599 -0.2854362104 -0.1127423110
-0.4188878167 -0.3412964570 -0.1168383876
-0.3694686788 -0.4694487211 -0.0209011838
-0.1033345868 0.0438027462 0.0320577096
-0.2423269145 -0.1253482790 0.0239976551
0.0595093679 -0.0492382115 0.0444401085
-0.7483336958 -0.6557890447 -0.0399484508
-0.2856849757 -0.3027417579 0.0564200914
-0.3016612873 -0.3763800142 0.0197912816
0.5258677559 0.4719053219 -0.0596398823
0.0839817470 -0.1432485235 0.0945574657
-0.3813183047 -0.4808135045 -0.0247247882
-0.3255589604 -0.1868565332 -0.0541254159
-0.3630259759 -0.0247583549 0.0189914095
-0.3159965965 0.0501808214 -0.0149946087
0.2441119451 0.2540075822 -0.0601997444
0.3282004182 0.2889945770 -0.0828859998
0.4794661740 0.3832746261 -0.1091324005
-0.0791317857 -0.0051441735 0.0678183846
-0.4671193869 -0.5351485093 -0.0011202212
0.4962789434 0.4234771498 -0.0160989010
-0.0039942520 0.0616699478 0.0754052370
0.0548574796 0.1205449655 0.0778468455
0.4938418988 0.2501311987 0.0365443727
-0.1648120104 0.1607684385 -0.0204519073
0.3275975580 0.2712919202 -0.1355474854
0.4365749882 0.3647980395 -0.0402005042
-0.5240324569 -0.5672451654 0.0126778205
-0.0998880623 -0.1572170893 0.0845406876
-0.2784227026 0.0662280812 -0.0173062228
0.3664575077 0.2839277743 0.0086770952
0.4308520890 0.3450595285 -0.1251887852
0.4691297506 0.3286896793 -0.0862780249
-0.2686029321 0.2720820806 -0.0928924324
-0.2708626131 0.3050515895 -0.0994202185
-0.2851804783 0.4628662667 -0.1316669516
-0.3095702892 -0.4017678386 -0.0084602232
-0.0568951184 -0.2144609902 0.0447948697
-0.0365010841 0.1057257469 0.0309434100
0.3771916047 0.4019028788 -0.0041093545
0.3640591569 0.4887071040 -0.0383884918
-0.5770292028 -0.5021175795 0.0907374020
0.4055491861 -0.3316162362 0.1601469257
0.3556921343 0.6190662748 -0.0815296165
-0.1389689720 -0.0249438547 -0.0553603042
-0.1582957725 0.2433235108 -0.0402093505
-0.2877775543 0.6861117023 -0.1621143714
-0.1789501395 -0.2354800241 0.0762642125
0.3430454504 0.2283670828 -0.0891522336
0.0111801383 -0.3161492334 0.1679394585
-0.2294111025 -0.3400631545 -0.0442194582
0.3320721818 0.4570610960 -0.0252172890
-0.2804371418 0.0790552507 0.0249768709
-0.2754508219 0.4044105055 -0.1010776500
-0.2512586975 0.1738996250 -0.0477300827
-0.0894774810 0.0362512110 0.0425786446
0.4526488962 0.3737293708 0.0507744713
0.5436548757 0.2446492804 0.0293005924
-0.4328587073 -0.5158733854 -0.0219443140
0.0763815064 -0.1068051272 0.0740305481
0.1589143466 0.1973294391 -0.0662925554
0.3741881932 0.3982602415 -0.0119749500
-0.1977893975 0.0409459457 -0.0292776894
-0.0740515708 0.0572921967 0.0549567437
0.4346447817 0.3525275791 -0.0228274755
-0.2829484773 -0.3758020041 -0.0559971114
0.0011082241 -0.2512936790 0.1512837805
-0.4276843945 -0.2776041761 -0.0567425563
0.3266261750 0.1936148075 0.0088083906
0.3721060501 -0.2224761303 0.1527321246
-0.1775663089 0.3455149725 -0.0514808064
0.4334450615 0.3622992333 0.0382389569
-0.4302458338 -0.3033852547 -0.0895898537
0.4177091504 0.3374931958 0.0595824395
0.4287913861 -0.3385819209 0.1818172724
0.3881199536 0.3678120684 -0.1043532809
-0.1529846890 -0.1404801223 0.0747204771
0.4781042292 0.3498739125 -0.0949174260
-0.4930292403 -0.4361615997 0.0453277717
-0.5122347014 -0.3567631326 -0.0136489285
-0.5212523673 -0.3687779100 -0.0077574286
-0.3138943210 -0.1675338086 -0.0380012389
0.1173731282 -0.0066574287 -0.0230307014
0.0052662676 -0.1093530613 -0.0335120906
0.0243033277 -0.0941938778 -0.0276143078
0.1758039135 0.0454137018 -0.0150012690
0.2252282610 0.0990944351 -0.0254669591
-0.2654271658 -0.3181517750 0.0429404900
0.5390510036 0.4189867878 -0.0466585635
-0.1288808673 0.0276754759 0.0006611031
-0.5037170980 -0.4778173094 0.0435210108
0.3269248254 -0.2457372452 0.1358935776
-0.5170524562 -0.5443317560 0.0250703932
0.4002990486 0.3278465519 0.0142497292
0.0461416793 -0.1429643918 0.1077306812
-0.1474592930 0.0927977616 0.0372830934
-0.6070114313 -0.4752325478 0.0136918607
0.5865896947 0.4825086407 -0.1125440475
-0.3159187495 0.5930607513 -0.1516704853
0.5800112811 0.2820254652 0.0428497283
0.0263785928 -0.2464094155 0.0652090629
0.3837496888 0.2634991435 0.0032326884
-0.2283059068 0.5533655470 -0.1258899034
0.2119561201 0.0776428690 0.0292099806
-0.4999801698 -0.3396784065 -0.0397002275
0.1076170187 -0.2841124743 0.1112303912
0.0243626416 -0.2873442170 0.1188110663
0.2786973523 0.2379852631 0.0986264613
0.4451469373 0.3836074735 0.0569783707
0.3041177224 0.2822299819 -0.0837327690
0.0872103652 -0.0366055041 0.0224579150
0.6027853419 0.2490618657 0.0351551788
0.3727053015 0.4924923558 -0.0346570552
-0.0090818022 -0.3254208469 0.0991349678
-0.0275742465 -0.1364794877 0.0247857568
0.6117005463 0.3150231431 0.0420981305
0.0507514149 -0.1652910937 0.0927773457
0.2858399199 0.2025903492 -0.0500499654
-0.7135996567 -0.6576471529 -0.0817671359
-0.4195789202 -0.2832175067 -0.0953922652
0.1936792270 0.1898115287 0.1031624747
0.3059780633 0.1816584360 -0.0174732004
-0.2147344325 -0.3146361850 -0.0019310299
0.4346981394 0.3674732709 -0.1220655530
0.1148367000 0.0746681463 -0.0793268448
0.1386767624 0.1224043977 -0.0789454791
0.1732852431 0.1278279991 -0.0744025317
-0.1074495398 -0.1293253616 -0.0979692789
-0.1405080301 -0.1561517072 -0.1009483258
0.0793918561 0.0422407234 -0.0823027511
-0.0505987423 -0.0758481100 -0.0932690583
-0.6388422093 -0.4909173979 -0.0942990469
-0.1548799821 0.3256912974 -0.0592222281
-0.1476505111 0.3214037246 -0.0552858050
0.5160835177 0.3889607655 -0.2071337456
0.3918063706 -0.3072467579 0.1545336273
0.3380549632 -0.2889558354 0.1405660276
-0.0553032715 -0.0310962755 0.0339802727
-0.1602621598 -0.1366803797 -0.1026205128
0.0675186899 0.0688720648 -0.0841333431
-0.0175665564 -0.0019349424 -0.0902644728
0.1658789376 0.1555930285 -0.0764332889
-0.3769534868 -0.3454282683 -0.1219289091
0.3877129212 0.3852245368 0.0198077920
-0.1802371104 0.1533970324 -0.0437327054
-0.1311841844 0.0879351422 -0.0028350408
-0.5377417511 -0.3857015771 -0.0060734058
-0.2381098234 -0.2456461961 0.0640914718
-0.2871765466 0.7077711835 -0.1665012956
-0.1684451085 0.0975566878 0.0418473100
-0.2548105309 -0.1280000315 0.0477359601
-0.1852879592 0.2814017596 -0.0657491555
-0.1508737971 0.0943339227 0.0132874380
0.1615032400 -0.1735441051 0.0927087125
0.2853944471 0.2405777174 -0.0579588281
0.0384813123 0.1241872101 -0.0546499481
-0.0148033651 -0.1208449438 -0.0476807010
-0.2100512673 -0.3082598607 -0.0506209007
0.1238214163 0.0080058417 -0.0380687397
-0.0975841892 -0.1997962142 -0.0498173815
-0.1654388314 -0.2631900364 -0.0539325106
-0.4013829224 -0.4523133852 0.0262814098
-0.4489530981 -0.3265767853 0.0263110266
0.0851707056 -0.2654804948 0.0805357834
0.4824036834 0.3897731842 -0.1335379701
0.3477761312 0.5635896659 -0.0706727437
0.6918568094 -0.3626204217 0.2173374644
0.4867416082 0.3211998016 0.0259366659
-0.4568405182 -0.3133869764 -0.0900409082
-0.0274035775 0.1110630135 0.0220690584
-0.1553337201 -0.0434815175 0.0358677127
-0.4596028292 -0.3301285937 -0.1128150345
-0.3904725500 -0.2484426367 0.0034559750
0.3323860349 0.4440557426 -0.0400482788
-0.1870358476 0.0883485731 0.0719233491
-0.1919233490 -0.2065286931 -0.1050589687
0.1647278543 0.1310995824 -0.0758053817
0.1704532832 0.1409267035 -0.0756162647
0.1279384106 0.1014579569 -0.0791476039
-0.0298476493 -0.0535661769 -0.0917480579
0.1786581788 0.1511940586 -0.0750951111
-0.3583327865 -0.2367675474 -0.1073890943
-0.0659906249 -0.0336614812 -0.0926055432
-0.2214186768 -0.1897972445 -0.1073018891
-0.2309201263 -0.1847848150 -0.1063046672
-0.2064356083 -0.1751074470 -0.1059411923
-0.3943399868 -0.3520797807 -0.1221602715
0.0032986304 0.0265226897 -0.0873008839
-0.4082150629 -0.3509840260 -0.1214966733
-0.2943895754 0.0332183283 -0.0049344978
0.4126749171 0.3506531045 0.0274185989
0.1619014450 0.1359224184 0.0992490847
-0.3005345964 -0.4025970884 -0.0555331115
0.4477792563 0.4000859903 0.0564921299
-0.1830778972 0.0961638424 0.0801893371
0.4839191988 0.3834855063 0.0110712636
0.2404980160 0.2906278745 0.0798797508
0.4721315188 0.3448445848 -0.1822434597
0.3660594527 0.2474431649 -0.0061196084
0.5701947011 0.4097063921 -0.2729488232
-0.5587762624 -0.6229077122 -0.0502397414
-0.7235390520 -0.6070090322 -0.0185406925
-0.2386208003 -0.1346051014 0.0504108608
0.0206792653 -0.1462620986 0.1845556364
0.6013179669 0.3146570222 0.0404582644
0.3807855321 0.3467207634 -0.0858688738
-0.6187738120 -0.5166261804 0.0254127435
0.4600886212 0.2995133493 0.0389561930
-0.2917521717 0.1148958888 -0.0640432866
-0.2633483594 -0.0201494578 -0.0378803823
0.2570849798 0.1902046852 -0.0593604198
0.0636236720 -0.0329366763 0.0745014604
-0.3890262818 -0.4773328477 -0.0884788372
0.4498614861 0.3230345804 -0.0868605320
0.5061124572 0.4059400435 -0.0390262961
-0.1352324806 -0.0069579718 -0.0266737004
0.1602753805 -0.1580186234 0.1041590679
-0.6759685330 -0.6585747437 -0.0061638891
0.1710843805 0.0398388985 -0.0103436126
-0.0453676296 -0.3393574501 0.1158319006
0.5111554647 0.2927596935 0.0406288112
-0.0201454951 -0.2533553178 0.0897098591
-0.2869247338 0.1894952834 -0.0816318530
0.3330695671 -0.1948409305 0.1381064641
-0.5982452578 -0.4917766479 0.0420780641
0.6025863703 0.2913779478 0.0375629779
0.2496916984 0.2935307281 -0.0422853672
0.4876919386 -0.3466831783 0.1945162192
0.2903741375 0.3154724056 0.0801235644
-0.3077439468 0.0235242371 -0.0170909875
0.0021647685 -0.2677532810 0.0626980915
-0.3026031449 -0.4065005400 -0.0431996187
0.3230165156 0.2375987062 0.0807464992
-0.2549026207 0.1025007979 0.0166383366
0.2242716606 0.2984647800 -0.0238293211
-0.4364136892 -0.4798204676 -0.1087262298
0.3025868056 0.2011641465 0.0785325025
-0.2742912020 -0.1335647452 -0.0304875573
-0.5416392332 -0.4338271876 -0.1183613759
-0.5925712739 -0.5274357575 -0.0009959883
0.3538376650 0.3151281001 0.0814287308
0.0749404244 -0.2416096473 0.1136297215
0.5276969403 0.4008376130 -0.2001894980
0.3422910212 0.3402738320 -0.0037487424
-0.2381559535 0.5348972446 -0.1192896157
0.3655112877 0.5995602329 -0.0695195597
0.4551235819 0.4020076982 -0.0624333983
-0.2728898430 0.6670588052 -0.1547522821
0.4664251478 0.3213331256 0.0394245256
0.3558618280 0.2198529693 -0.1058568379
-0.1941532483 -0.2568955765 0.0467407033
0.5649212642 0.3227053005 0.0371087831
0.5294056985 0.4577278364 -0.0098454027
-0.0522190516 0.1206991699 0.0230431962
-0.6957247502 -0.6202282248 0.0046929167
-0.2680791250 -0.1501756431 0.0188910696
-0.2500004606 -0.3599259894 -0.0367233142
-0.1367113076 -0.0335687567 -0.0657016529
0.4086868307 -0.3165789347 0.1592061631
0.0147451883 -0.2221620754 0.0923281942
-0.0818662163 -0.1228566987 -0.0916181485
0.0566184110 0.0110060519 -0.0817215769
-0.1672200823 -0.2155064651 -0.0949222724
0.1111400063 0.0468015978 -0.0732350212
-0.1097664326 -0.1527878245 -0.0927798171
0.1456356343 0.0774757445 -0.0700684276
-0.6145047748 -0.4691993717 0.0011956429
0.3112167555 0.2642472209 -0.0437011614
0.6770092775 -0.3560965560 0.2509736594
-0.0025699357 0.1027295429 0.0465091086
-0.3935553746 -0.2427744259 -0.0229318483
0.1288672625 0.0013530853 -0.0163917853
-0.5110533983 -0.3755018221 -0.0940497454
-0.3549715003 0.0767856501 -0.0213764558
-0.3120864781 -0.4083824546 -0.0325549146
-0.5090507937 -0.5530658340 0.0161179381
0.3201239226 -0.1795420323 0.1354268177
-0.3933074517 -0.0000741449 0.0295660612
0.1979007931 0.2466641221 0.0900526122
0.3836186012 0.4129166623 0.0086593985
0.2179423207 -0.2593818847 0.1102666168
0.1584864065 -0.2429859562 0.0951460653
-0.3962189935 0.0363787681 0.0257019403
0.4312926159 0.3201267116 -0.0544236506
-0.3134750957 -0.3669683864 -0.0982272180
-0.3626984096 -0.4164379253 -0.1001533157
-0.3951137462 -0.4341659446 -0.1093465931
-0.1734655486 -0.2356773364 -0.0877296740
-0.2147629290 -0.2724969992 -0.0918638476
0.0886457284 0.0173986085 -0.0720288446
-0.1878810958 -0.2407159939 -0.0933659238
0.0586222178 -0.2467348225 0.1047822315
0.5052311276 0.4213895716 -0.1211552780
-0.6284504913 -0.6125319483 -0.1186980253
0.3444994407 0.2169239990 -0.0877234960
-0.6520944179 -0.6729054573 -0.0557899664
-0.1973167889 0.2128971070 -0.0592844751
-0.2523082710 0.5132861707 -0.1295325142
-0.2409252154 0.4364163402 -0.1125505365
-0.1539690609 -0.0487231927 -0.0664074558
0.1894272533 -0.2388952724 0.1210319152
-0.2790356085 0.0817923576 -0.0607544651
-0.1957144639 -0.2963644827 0.0019375684
0.3059386126 0.2421058518 0.0904369020
-0.0225201777 -0.2656007594 0.0891598687
0.2475487076 0.2081594408 -0.0647837363
-0.1402455765 0.0033508338 0.0044023950
-0.7371533548 -0.6154151804 -0.0524728093
0.4383979245 0.3947173180 -0.1177702802
0.0849636057 -0.1339244784 0.1099150402
-0.2748916665 0.4355411456 -0.1238273349
-0.2843622657 0.5118215542 -0.1401637683
-0.2644479804 0.3618848672 -0.1076668019
-0.4329566597 -0.4903036184 -0.0990759253
-0.0650412138 -0.3062155594 0.1573263673
0.0142747766 -0.0398110256 0.0741966344
-0.1495153582 0.0929590436 -0.0198785621
0.3521949189 0.2307907011 -0.1108800478
-0.5361991214 -0.5516114944 0.0282692232
-0.6815929995 -0.5245328539 -0.0403447061
-0.2483610080 -0.1442426506 -0.1006215502
0.2076015925 0.0979278159 -0.0436830466
-0.0048187579 -0.1090845162 -0.0508529450
0.0661473785 -0.0324318451 -0.0554799995
0.1008936818 -0.0027010512 -0.0504578986
0.0420288577 -0.0573104642 -0.0550152558
0.5242407779 0.3719763215 -0.2632173399
-0.1808471672 0.4354766224 -0.0859644398
0.5084191186 0.3638207980 0.0400658721
-0.7202130102 -0.6287447154 -0.0084200828
-0.2970518296 0.2709122078 -0.0968395210
0.2241328664 0.1567051727 -0.0641038896
0.2775284725 0.3391180485 -0.0117840012
0.3600370345 0.4784907292 -0.0221952793
-0.4359536212 -0.2702531856 -0.0491427486
-0.2302950089 -0.3331107764 -0.0251460373
0.1027014522 -0.0792054536 0.0904911332
0.4883727492 0.2572503499 0.0385460976
-0.5115756431 -0.5753662970 -0.0068285622
0.3380836199 0.2676423389 -0.0580254799
0.4046612899 0.3472158007 0.0376259766
0.1094152534 -0.2666016741 0.1093438724
0.4667129739 -0.3388922378 0.1893376495
0.4760059506 -0.3392698151 0.1912228951
-0.0481436723 -0.1080524026 0.0790717004
0.4134523461 0.3254483287 0.0377621250
-0.2360311604 0.5143719059 -0.1144748089
0.3806502949 0.4055015492 0.0383878352
0.5599198000 0.4239975864 -0.0696014414
-0.2492298810 0.5657079088 -0.1367527025
0.3946762852 0.3470671210 -0.1303287567
-0.2704567721 -0.3448335935 -0.0815090655
-0.3889696145 -0.4581117886 -0.0875912082
-0.2440329478 -0.3194882383 -0.0802465670
-0.2226093309 -0.2958700266 -0.0820968037
-0.1322209787 0.0984509973 -0.0132881907
-0.0513905947 -0.0134277170 0.0680160460
-0.1648111457 -0.0156059850 0.0348245211
0.4135968927 0.3222486724 0.0558560986
-0.5820244652 -0.5234404033 0.0366786339
-0.1981310262 -0.3079086763 -0.0596862433
-0.1952053684 0.1458620423 -0.0255392950
-0.5611719027 -0.6169802802 -0.0793896464
0.2262834924 -0.1938147846 0.1098114723
0.0247744769 -0.1819576933 0.0910846295
0.0978114715 -0.2317279060 0.0795693987
0.3819636856 0.4309069371 -0.0102616009
0.1538190431 -0.1465616698 0.0911451421
-0.5919048624 -0.4758655563 -0.1180576839
0.4637391924 0.3423289984 0.0393035173
-0.2998100111 -0.3780887719 -0.0781465081
0.1244569048 0.2075049795 -0.0434324911
0.5610812463 0.2547490359 0.0413340052
0.3956664144 0.4128460608 0.0035085749
-0.1504694432 0.0297316649 -0.0088520691
-0.2817235349 0.3304209787 -0.1069729544
-0.1470260313 -0.2627356989 0.0446876330
-0.6598545546 -0.6562740393 -0.0065046267
0.4011858931 0.3752473502 0.0660123126
0.3210789859 0.2902006963 -0.0303976787
0.1146918735 -0.1888066541 0.1014456090
0.4625481521 0.3619401604 -0.0010505551
-0.1407075633 0.2189679089 -0.0375888365
0.1701138038 0.2606361026 -0.0249491218
0.3572822354 -0.2597399946 0.1436788676
0.0393226761 -0.2813709019 0.1203031485
0.1038966794 -0.0984742321 0.0814899708
0.5718189151 0.4320537309 -0.2080719640
0.0425932712 -0.0759890434 -0.0285300771
0.0659065224 -0.0510423347 -0.0327828513
0.1832089355 0.0591311676 -0.0267039768
0.2049580581 0.2257843751 0.1003515113
0.2978421910 0.1596000635 0.0216518007
-0.2849460295 0.5426735502 -0.1457757146
-0.3234477503 -0.1804212844 0.0096521880
0.0234138498 -0.2033986318 0.0922508050
0.3336646194 0.4849944551 -0.0524074513
0.2968657714 0.1646890814 -0.0065230929
0.0864458670 0.1934290989 0.0389872612
0.3104942409 0.2891681257 -0.0832471377
-0.0889270152 -0.3251018351 0.1139079842
-0.0030656200 0.0441252417 0.0814738712
0.0530090923 0.1002074665 0.0849597780
-0.1451801766 0.1329556591 0.0330436793
-0.3280925970 -0.4320401738 -0.0206352595
0.3211225962 0.5061694842 -0.0502426866
-0.5119154510 -0.5138753564 0.0365556478
-0.4354478698 -0.4284720914 0.0474533524
0.6002577429 0.2749082816 0.0434254569
-0.0768146500 -0.0997648688 0.0840126172
-0.2309097679 0.1406041102 -0.0346365966
-0.2545668477 -0.3459222191 0.0053001097
-0.6182683420 -0.6547066144 -0.0306509873
-0.4474475470 -0.3137788408 0.0157265400
-0.5003414030 -0.3597361741 0.0087020374
-0.4150545694 -0.4920765272 -0.0050376065
0.3410594985 0.2091334155 -0.1151272916
0.3362197360 0.5418056622 -0.0581938723
0.0998210785 -0.0411683442 0.0858193094
-0.5225990928 -0.5655869266 -0.1090551210
-0.0478346109 0.0140094528 0.1285205662
-0.0485045811 -0.3550257407 0.1724177344
0.6052624788 0.4984726549 -0.1087836947
-0.6045513912 -0.6478716198 -0.0313093759
0.4282352717 -0.3548772602 0.1724754259
-0.1454284616 0.2035675893 -0.0374650320
0.3746377813 0.5034399050 -0.0370812523
-0.0516251358 0.0653421353 -0.0315944664
0.6470193719 -0.3660106575 0.2185053343
0.1272080734 0.1649521922 0.0921345155
0.0368991650 0.0765343426 0.0860171414
0.4259824690 0.4377718846 0.0162888597
0.2308576116 0.0927492236 0.0076170134
-0.5754180096 -0.6104068208 0.0019359931
0.2294521466 0.2722545845 -0.0491322709
-0.2980042294 0.5237206754 -0.1461398540
0.4985722118 -0.2576348408 0.1808597272
0.0457696337 -0.0623102156 0.0567009700
0.4547188311 -0.2643245878 0.1753433461
0.3860993373 0.4511124530 -0.0005184241
-0.2037693602 -0.2445916655 0.0455583671
-0.0715248922 0.1503170192 0.0079148603
-0.3053271824 -0.4022657347 -0.0762937984
0.5619913990 0.4340772123 -0.0918390443
0.3192149886 0.4160429638 -0.0140417443
-0.2859291111 -0.1174571251 0.0131484982
0.2386645992 -0.1480441763 0.1149049461
-0.4841861847 -0.3974436076 -0.1209332782
-0.5873389394 -0.4894122570 -0.1259161920
0.1787846755 -0.2230588859 0.1165549962
0.5399449723 -0.3255790756 0.2016142117
0.3659555736 -0.2819445430 0.1615220913
-0.5662229341 -0.6034612902 0.0038641255
0.3421343325 0.2476391868 -0.0340950951
0.4456040525 0.4238305467 -0.0821812978
0.4808924452 0.3792753648 -0.0928057817
-0.3496990287 -0.2556916629 -0.1018670828
-0.0106497121 0.0737248084 -0.0633663493
-0.3133789336 -0.2105534007 -0.0918701089
-0.2411244372 -0.1454905313 -0.0867191298
-0.1228607513 -0.0407842161 -0.0793945762
