0.5028187937 0.2563536034 0.2883280061
0.4972725765 0.2360672882 0.3038235460
0.4890977874 0.2564578406 0.3014739903
0.4701685276 0.2236943376 0.3360919899
0.5173772684 0.2230988300 0.2894369750
0.5476321572 0.2158152135 0.2621512619
0.5151442487 0.2225937663 0.2918837787
0.5695722842 0.2400286159 0.2301171945
0.5598474934 0.2507769286 0.2353967694
0.5617070379 0.2142334175 0.2487075241
0.5014187346 0.1924983883 0.3181304044
0.4791781678 0.1753203629 0.3475440582
0.4745458955 0.1856526426 0.3478946707
0.5152972616 0.1884721171 0.3058983439
0.5601339781 0.1784575186 0.2628782782
0.5599052378 0.1681719963 0.2664665710
0.5278105077 0.1854941004 0.2940191659
0.5416920229 0.1762672690 0.2826674886
0.5450253586 0.1772198986 0.2789092153
0.5707535432 0.1659346031 0.2559746870
0.4890355787 0.1630536195 0.3414387707
0.5357724353 0.1511735412 0.2969677633
0.5852157531 0.1606943801 0.2427232878
0.5193853410 0.1425547651 0.3167264582
0.5546088705 0.1393072692 0.2805171916
0.6120225425 0.1116593758 0.2262238001
0.5205997278 0.1271112802 0.3193882150
0.5757708725 0.1468705724 0.2563359192
0.4979756364 0.1289476598 0.3429100295
0.5868948998 0.1454268553 0.2448974904
0.5042532462 0.1050364561 0.3418924020
0.5430871300 0.0969385116 0.3026797278
0.5274133897 0.1081515126 0.3166359217
0.5755692927 0.1050593571 0.2663741042
0.5688707136 0.0983238530 0.2748816623
0.5556912457 0.0724991413 0.2927206603
0.5866811501 0.0907422592 0.2568067460
0.6032267074 0.0760146827 0.2411066921
0.5874487207 0.0965997346 0.2551496082
0.5171614035 0.0869643029 0.3320976206
0.5540127464 0.0498946875 0.2977168917
0.6140486918 0.0554613615 0.2323881118
0.5270396928 0.0705922916 0.3237929536
0.5443314571 0.0592472678 0.3068046580
0.5527194378 0.0411726387 0.2996755912
0.6203937332 0.0136527440 0.2276563549
0.5521107086 0.0327075707 0.3007326597
0.5678310495 0.0304682225 0.2838079191
0.5849526428 0.0165415244 0.2659141832
0.6155501578 0.0509736481 0.2311503542
0.6141613247 0.0020502774 0.2349530312
0.5086776309 0.0075734871 0.3489671718
0.5120193553 0.0382852433 0.3439020152
0.5620467584 0.0089577298 0.2910854898
0.4878097649 -0.0002340411 0.3830523846
0.5006822333 -0.0082926840 0.3602136014
0.4897423558 -0.0319795112 0.3773328843
0.4772984925 -0.0334625899 0.3987116578
0.4599849706 -0.0316520357 0.4287481383
0.4885054777 -0.0761621759 0.3711630730
0.4959127852 -0.0825606033 0.3570279718
0.4707050548 -0.0469466674 0.4082456040
0.4615681155 -0.0707626412 0.4185280580
0.4601043247 -0.0774189231 0.4195314395
0.4762273809 -0.0942464809 0.3866079114
0.4604472657 -0.0870510807 0.4159225326
0.4657689908 -0.0835130244 0.4082733424
0.4424125688 -0.1109204748 0.4374543985
0.4598080787 -0.0982894140 0.4127879193
0.4625839283 -0.1195972529 0.4001484296
0.4625426873 -0.1279112374 0.3965591206
0.4515402933 -0.1300819026 0.4135806267
0.4683479920 -0.1667009708 0.3668203591
0.4318612300 -0.1550347885 0.4330316142
0.4326440515 -0.1434288092 0.4377846723
0.4421151676 -0.1826598920 0.3987066757
0.4678283206 -0.1760837371 0.3619987276
0.4579186010 -0.1830243166 0.3732296520
0.4368680595 -0.1953216831 0.3987081796
0.4253180763 -0.1936662118 0.4182501338
0.4476638065 -0.2124455567 0.3696561725
0.4185075119 -0.2098948735 0.4163991220
0.4469826142 -0.2196396361 0.3649568223
0.4168890113 -0.2342472083 0.3994307818
0.4238837715 -0.2255641882 0.3956443498
0.4306733347 -0.2572437225 0.3588434250
0.4129672857 -0.2576088044 0.3843136856
0.4162045823 -0.2581449947 0.3790967899
0.3908685599 -0.2515464004 0.4221645231
0.3904440616 -0.2380315395 0.4353325059
0.3868492510 -0.2602713585 0.4199253334
0.4002203808 -0.2850604884 0.3768362917
0.4024888563 -0.2975882051 0.3605405755
0.3658011338 -0.2740353662 0.4356647154
0.3764490125 -0.3002499108 0.3934653496
0.3700794653 -0.3075503766 0.3945319550
0.3581068097 -0.3226215646 0.3925538004
0.3649846607 -0.3411811271 0.3620884277
0.3323162415 -0.3308356119 0.4157888491
0.3407993826 -0.3384867168 0.3960446412
0.3337642629 -0.3165072750 0.4307013223
0.3266458134 -0.3625687422 0.3821629992
0.3455809916 -0.3668290763 0.3546160679
0.3337705129 -0.3459013414 0.3950745578
0.3151846538 -0.3588003864 0.4003679614
0.3134460434 -0.3714217585 0.3863254234
0.3215458201 -0.3859190724 0.3581316112
0.2980934631 -0.3897087403 0.3776237315
0.3137927245 -0.3743959874 0.3821096456
0.2762895242 -0.3656374581 0.4335972350
0.2764071197 -0.3906028556 0.3992102798
0.2773378758 -0.4150669239 0.3630496555
0.2635979555 -0.3920485752 0.4093782027
0.2577571602 -0.3864815639 0.4229220752
0.2506611555 -0.3922220575 0.4211394932
0.2380357045 -0.4123921614 0.4034504374
0.2497682499 -0.3869627047 0.4296364827
0.2258446820 -0.4121593455 0.4135504040
0.2246933274 -0.4240888808 0.3961812916
0.2070633247 -0.4219007057 0.4136168210
0.2061722791 -0.4104652198 0.4318607091
0.2089376298 -0.4400760609 0.3842543607
0.1907291312 -0.4188124099 0.4307941848
0.1980434611 -0.4628708009 0.3555911699
0.2096277743 -0.4559574626 0.3589642554
0.1654065182 -0.4226217570 0.4414655632
0.1713743616 -0.4705592509 0.3609640599
0.1460068039 -0.4788014678 0.3605827714
0.1578101007 -0.4474409974 0.4061543747
0.1627925657 -0.4495844357 0.4000326597
0.1492017400 -0.4332295430 0.4340581257
0.1411775069 -0.4418511701 0.4240198839
0.1049248850 -0.4762980823 0.3828065031
0.1220257610 -0.4868243283 0.3586149999
0.1091620575 -0.4819975343 0.3715932832
0.0927572372 -0.4471834997 0.4364799397
0.1072323384 -0.4392061719 0.4445427587
0.0778506041 -0.4548364380 0.4287882536
0.0811852097 -0.4916649113 0.3649461584
0.0671179274 -0.4670992895 0.4101947781
0.0635644338 -0.4498723740 0.4405189589
0.0427138120 -0.4642705939 0.4205572173
0.0569430071 -0.4764890914 0.3964007452
0.0377054870 -0.4974260917 0.3639997813
0.0231026326 -0.4847158283 0.3870457627
0.0153076677 -0.4638780289 0.4236226654
0.0027627545 -0.4799858907 0.3967456232
0.0299003381 -0.4573080330 0.4338708534
-0.0176705517 -0.4736229680 0.4066282840
-0.0256190877 -0.4878822232 0.3814024013
-0.0154936009 -0.4790767917 0.3973713472
-0.0108237055 -0.4576879556 0.4346641154
-0.0303442774 -0.4793317594 0.3958146039
-0.0542570905 -0.4698042269 0.4085059807
-0.0450631949 -0.4860290010 0.3827680310
-0.0606485614 -0.4863651662 0.3786843634
-0.0797096953 -0.4621194307 0.4159234600
-0.0646499840 -0.4488773217 0.4420094059
-0.0892274942 -0.4596282052 0.4168287095
-0.0979517331 -0.4783745014 0.3819377057
-0.1147899776 -0.4750840566 0.3811727441
-0.0913381614 -0.4546672572 0.4244059692
-0.1020587753 -0.4459659012 0.4351014848
-0.1521414766 -0.4626205046 0.3841564077
-0.1551640374 -0.4760563650 0.3604216546
-0.1315086319 -0.4727161086 0.3782257704
-0.1452910160 -0.4398512325 0.4252542977
-0.1676875611 -0.4683699532 0.3665884319
-0.1482431818 -0.4322129639 0.4363063059
-0.2130789551 -0.4581448125 0.3532699920
-0.1832430140 -0.4521105679 0.3826521663
-0.1674413001 -0.4210306968 0.4427429842
-0.1985634116 -0.4305891262 0.4068840077
-0.1855261648 -0.4197717552 0.4327870955
-0.2100076060 -0.4495604583 0.3689594832
-0.2128258070 -0.4363707402 0.3869336883
-0.2027437626 -0.4229229798 0.4156032860
-0.2052024703 -0.4150289561 0.4257440165
-0.2164730508 -0.4073121258 0.4285705933
-0.2507938626 -0.4089231171 0.3967738550
-0.2726451543 -0.4137132121 0.3694955609
-0.2399203176 -0.4014329943 0.4177914849
-0.2869128814 -0.4108586697 0.3604060177
-0.2723265471 -0.4068310419 0.3798240252
-0.2791850360 -0.3821788464 0.4079719102
-0.3160894841 -0.3932281700 0.3539774477
-0.2843844451 -0.3805454215 0.4047408005
-0.2851442353 -0.3681675604 0.4209329024
-0.2865982723 -0.3547284091 0.4378579473
-0.3012973997 -0.3796281481 0.3882020787
-0.3429538566 -0.3689404049 0.3551435179
-0.3182455308 -0.3753149981 0.3759007835
-0.3324909845 -0.3443903189 0.3986558662
-0.3127342929 -0.3350661996 0.4336266388
-0.3426380095 -0.3473431352 0.3830317552
-0.3833647794 -0.3259747101 0.3565893205
-0.3502901407 -0.3379191189 0.3847735788
-0.3663324094 -0.3340508998 0.3688543616
-0.3778352190 -0.3219340694 0.3683588845
-0.3616417364 -0.3149040108 0.3972141485
-0.4016187947 -0.2965176760 0.3630381943
-0.3914627044 -0.2942780565 0.3793349215
-0.3632450035 -0.2917514307 0.4207222929
-0.3714281072 -0.2617318406 0.4410568059
-0.3872898102 -0.2818590249 0.3981258204
-0.4291040669 -0.2611267841 0.3577089270
-0.4087264384 -0.2705679657 0.3786495527
-0.4073639818 -0.2822676465 0.3697659868
-0.4156209548 -0.2496515703 0.3880256142
-0.4335030843 -0.2512318486 0.3604864792
-0.4442695359 -0.2276539081 0.3629090768
-0.4466058726 -0.2235857026 0.3625748623
-0.4234725905 -0.2213463528 0.3998261216
-0.4091508882 -0.2053997025 0.4345213954
-0.4044122737 -0.2045585023 0.4424583020
-0.4177906396 -0.2019814225 0.4240062874
-0.4364985986 -0.2033082504 0.3942146413
-0.4641301890 -0.1941143828 0.3561720722
-0.4417600847 -0.1634719126 0.4121743348
-0.4241980286 -0.1764384464 0.4316409080
-0.4300064809 -0.1718468940 0.4254030397
-0.4703006120 -0.1689087086 0.3626567599
-0.4697078380 -0.1442297763 0.3764525162
-0.4700941352 -0.1664621660 0.3642679257
-0.4349870204 -0.1317323625 0.4402167727
-0.4402794217 -0.1277743989 0.4335505523
-0.4810458220 -0.1059848110 0.3743112407
-0.4686856919 -0.1215604056 0.3893321974
-0.4763254386 -0.1137288642 0.3793737090
-0.4429670815 -0.1040279354 0.4393101617
-0.4590368705 -0.0839011215 0.4197013400
-0.4765577896 -0.0700549279 0.3932127302
-0.4841125040 -0.0780939289 0.3784621017
-0.4767360205 -0.0666739158 0.3936679768
-0.4463862802 -0.0707072184 0.4447610860
-0.4474774965 -0.0690024857 0.4432763651
-0.5005141693 -0.0319914148 0.3589425706
-0.4829638089 -0.0226940688 0.3899495022
-0.4840266783 -0.0220727343 0.3881605214
-0.4644536140 -0.0074960173 0.4230647145
-0.4799601009 -0.0029077848 0.3966266407
-0.4657481582 -0.0170229033 0.4201105526
-0.5001148599 0.0054995468 0.3615962962
-0.5042439997 0.0187454365 0.3534705041
-0.4661055763 0.0276940314 0.4186693119
-0.4518546936 0.0249380082 0.4434879468
-0.4778902343 0.0257912961 0.3984609004
-0.4963744582 0.0749810655 0.3580856732
-0.4884805112 0.0532607956 0.3765030276
-0.4875997191 0.0496083185 0.3788345850
-0.4504373882 0.0738054409 0.4370496874
-0.4692733190 0.0798930226 0.4034090868
-0.4894886169 0.1225510783 0.3537166197
-0.4724740080 0.1090266503 0.3874870431
-0.4901213754 0.0867453409 0.3660777135
-0.4608918234 0.1002979163 0.4103003661
-0.4472035322 0.0893329852 0.4375106984
-0.4544665269 0.1331715796 0.4071879200
-0.4729637320 0.1564492766 0.3645770930
-0.4575507621 0.1380560689 0.3995616145
-0.4344472987 0.1213014747 0.4463740784
-0.4320531519 0.1331528944 0.4441489669
-0.4445794309 0.1531076468 0.4131129192
-0.4646826330 0.1879511747 0.3591554745
-0.4696540466 0.1741030660 0.3603819382
-0.4348254488 0.1803677195 0.4118531582
-0.4262799694 0.1972757741 0.4143133249
-0.4263540416 0.1967633857 0.4145340654
-0.4364350716 0.2071167804 0.3910639703
-0.4466332526 0.2225300585 0.3631205480
-0.4324567002 0.2266224525 0.3815905709
-0.4281069298 0.2468770619 0.3720847820
-0.3946932855 0.2206482715 0.4442484671
-0.3995767800 0.2334120691 0.4261912025
-0.4137278329 0.2800474571 0.3622478058
-0.4082256027 0.2657920655 0.3835089048
-0.3958702901 0.2512751423 0.4150058758
-0.4022720781 0.2765660358 0.3821857474
-0.3868911921 0.3087475302 0.3700264778
-0.3834921004 0.2898328879 0.3945945979
-0.3769384660 0.2723979879 0.4219327098
-0.3730295581 0.2732085672 0.4264423824
-0.3722986834 0.3049843021 0.3940179967
-0.3627090315 0.3504652097 0.3539203777
-0.3612540397 0.3359100307 0.3727907022
-0.3577179593 0.3310486113 0.3829821038
-0.3390938833 0.2993738939 0.4437371579
-0.3398159124 0.3230911110 0.4150834214
-0.3322103059 0.3067269964 0.4438996709
-0.3375825986 0.3514380692 0.3833043144
-0.3510173286 0.3609760197 0.3554590669
-0.3154797061 0.3532779539 0.4067942364
-0.2939989150 0.3420485766 0.4462386988
-0.3075839112 0.3479679722 0.4227991176
-0.2996994535 0.3888536083 0.3767968626
-0.3006284877 0.3712718847 0.3999485108
-0.2963918453 0.3862490651 0.3838540501
-0.2636317802 0.3724159735 0.4372929210
-0.2867938919 0.4063577107 0.3663573694
-0.2677148744 0.4212487729 0.3626239929
-0.2706828001 0.4165932840 0.3666546191
-0.2599957790 0.4311382007 0.3553761168
-0.2437519453 0.4046684865 0.4090529542
-0.2521212585 0.4052952679 0.4003705828
-0.2296573168 0.3997336906 0.4291624421
-0.2485988695 0.4351097018 0.3598104085
-0.2335381290 0.4088019564 0.4121627967
-0.2199013086 0.3946685849 0.4447181240
-0.2074703864 0.4038534055 0.4405672216
-0.1824281684 0.4450261422 0.3939938996
-0.1953119415 0.4397219681 0.3939370288
-0.1987871379 0.4449479416 0.3832908837
-0.1743143485 0.4601708890 0.3751773998
-0.1708015657 0.4497665402 0.3941165908
-0.1605050116 0.4261335548 0.4386693224
-0.1467902954 0.4615556722 0.3881424529
-0.1368124689 0.4856932751 0.3535306427
-0.1210187593 0.4366215727 0.4426827972
-0.1260894391 0.4574797488 0.4056404079
-0.1345775633 0.4544693073 0.4061826949
-0.1164453772 0.4471586545 0.4271823229
-0.0990908479 0.4778085487 0.3819499308
-0.1033809408 0.4675734606 0.3976196857
-0.0958653324 0.4641597201 0.4061845784
-0.0953488820 0.4761015803 0.3862301163
-0.0704465973 0.4827104540 0.3821786106
-0.0768123897 0.4890145375 0.3699468734
-0.0544736001 0.4932319709 0.3677471095
-0.0446105836 0.4680571374 0.4131156593
-0.0466083435 0.4631007092 0.4211582433
-0.0379275508 0.4765209618 0.3995396870
-0.0348580861 0.4761572603 0.4003980229
-0.0240832916 0.5015649305 0.3573269426
-0.0011664712 0.4655395269 0.4212719747
-0.0269155249 0.4568501268 0.4343399902
-0.0162316682 0.4621936810 0.4259155576
0.0169319415 0.4991037695 0.3621056900
0.0031713511 0.4744076750 0.4057948322
0.0362798838 0.4705832743 0.4099100209
0.0200890715 0.4566058458 0.4352689391
0.0249011242 0.4704771049 0.4109509492
0.0694412846 0.4989873886 0.3544924979
0.0566030530 0.4748542969 0.3987426156
0.0592887108 0.4954052444 0.3629166688
0.0742586705 0.4545477275 0.4295450399
0.0570767562 0.4646073897 0.4161956548
0.0976410470 0.4751307105 0.3869350974
0.1180815010 0.4810700456 0.3692514430
0.1111505756 0.4846728076 0.3657740447
0.1172272786 0.4382791883 0.4418326813
0.1085943486 0.4689386110 0.3932723570
0.1512737469 0.4631860134 0.3830778654
0.1262838491 0.4558122526 0.4082292310
0.1293808345 0.4613950096 0.3974103337
0.1225716905 0.4339561357 0.4462042037
0.1417249042 0.4468401951 0.4149958357
0.1842173221 0.4465789105 0.3902430720
0.1805489909 0.4699043205 0.3554235230
0.1801428051 0.4430776841 0.3985306735
0.1879778627 0.4169464425 0.4350795588
0.1887231596 0.4298637897 0.4139560315
0.1764624384 0.4282120913 0.4247067504
0.2047553144 0.4382006403 0.3899771562
0.2356483517 0.4365092558 0.3679052102
0.2194624895 0.4017832715 0.4340633408
0.2281764861 0.4188039196 0.4010149673
0.2400031616 0.4188964617 0.3914274429
0.2853983955 0.4130792720 0.3579878287
0.2359837718 0.4079575262 0.4113510046
0.2436211652 0.4005004635 0.4151270644
0.2295728866 0.3903908445 0.4429131430
0.2786079544 0.4060375316 0.3745623939
0.3006305284 0.3856428851 0.3800771008
0.3110015798 0.3884505615 0.3653113699
0.2914256604 0.4084891748 0.3584247279
0.2739490915 0.3701458993 0.4294189164
0.2751912644 0.3624575929 0.4386697615
0.2955331047 0.3464937296 0.4386398999
0.3271358554 0.3641108635 0.3792347929
0.3347617094 0.3544059228 0.3826932814
0.3015268163 0.3383008916 0.4420585609
0.3152697841 0.3482635661 0.4133074673
0.3692919170 0.3330745622 0.3656879597
0.3637167385 0.3229202936 0.3846525302
0.3414742790 0.3245115059 0.4111307108
0.3280366953 0.3159015827 0.4383161762
0.3479597394 0.2924700050 0.4403612273
0.3563726193 0.3079394747 0.4115398856
0.3698041415 0.2914733260 0.4115013333
0.3863486064 0.3138618574 0.3652219753
0.3691277709 0.2709989148 0.4339591097
0.3797062314 0.2792217575 0.4107953312
0.3931844848 0.2809150120 0.3905170422
0.4192193233 0.2751377249 0.3586215655
0.4203327334 0.2763507152 0.3558711270
0.3816780023 0.2609128781 0.4265764520
0.4011582369 0.2482658790 0.4099162273
0.3959794507 0.2429624835 0.4223896310
0.4118351557 0.2337214171 0.4073382049
0.4351719628 0.2203041204 0.3822727940
0.4192334870 0.2251482429 0.4028399418
0.4153901295 0.1995700628 0.4291627574
0.4021079909 0.2207984772 0.4325673820
0.4586397351 0.1933079907 0.3650600380
0.4465764526 0.2023071713 0.3783687211
0.4480329705 0.1922491564 0.3826999862
0.4603633438 0.1748000708 0.3745572289
0.4572445086 0.1766849594 0.3782907302
0.4376312974 0.1815541355 0.4063902229
0.4465269598 0.1540086743 0.4092156490
0.4542069461 0.1526947518 0.3972365252
0.4477884937 0.1417836050 0.4134915052
0.4565094852 0.1298675586 0.4053171915
0.4582105023 0.1283760883 0.4032889103
0.4521465610 0.1091791216 0.4215704116
0.4767073869 0.1001447959 0.3834949994
0.4566420626 0.1092604864 0.4139499547
0.4566056459 0.0880569809 0.4219216145
0.4569569119 0.0928937074 0.4195260941
0.4844981688 0.0755982287 0.3780748455
0.4842523217 0.0686506907 0.3800589044
0.4966045248 0.0785318458 0.3566751511
0.4610588794 0.0451483814 0.4251050547
0.4944977659 0.0455892014 0.3676986542
0.4976816097 0.0218449766 0.3643540011
0.4791496834 0.0267713261 0.3959892766
0.4960720840 0.0195160390 0.3673083421
0.4557279538 0.0204942853 0.4369149143
0.4632619303 0.0097059554 0.4247149000
0.4459624478 -0.0165689905 0.4998445520
0.4433529224 -0.0049213305 0.5372586016
0.4454395879 -0.0124963979 0.5082516403
0.4429415229 -0.0287025666 0.5297975405
0.4414898912 -0.0286422561 0.5472676900
0.4419727508 -0.0062635025 0.5531257672
0.4444336802 -0.0476794231 0.4929072225
0.4420056487 -0.0583516320 0.5050668083
0.4408648115 -0.0623623129 0.5123351795
0.4416448199 -0.0614137705 0.5045435119
0.4392142959 -0.0630522917 0.5308955353
0.4375550579 -0.1012696710 0.4661794708
0.4415613377 -0.0860873761 0.4585382895
0.4419321021 -0.0818925981 0.4650566149
0.4326838888 -0.1120307115 0.4952745990
0.4333725006 -0.0926515157 0.5374530682
0.4308095053 -0.1163383904 0.5052503601
0.4258159272 -0.1336699094 0.4997538247
0.4290113389 -0.1209238561 0.5092364098
0.4233789141 -0.1524328504 0.4599656071
0.4186529342 -0.1504988009 0.5210166944
0.4198813154 -0.1501600586 0.5081820123
0.4223857013 -0.1578255248 0.4480570969
0.4141859129 -0.1653117997 0.5045501858
0.4051740495 -0.1867917772 0.5059904629
0.4130788131 -0.1569629297 0.5551809025
0.4052352206 -0.1763153922 0.5534753654
0.3972678699 -0.2093848587 0.4669671521
0.4010672708 -0.1989343607 0.4845426298
0.4050730995 -0.1894158600 0.4947285500
0.3909260221 -0.2115298940 0.5226912553
0.3948092385 -0.2004516046 0.5428872978
0.3716001527 -0.2551514727 0.4499458278
0.3779966154 -0.2374150427 0.4995872274
0.3785772707 -0.2343050342 0.5137772931
0.3780520622 -0.2276930967 0.5617395707
0.3669903596 -0.2475768063 0.5454223912
0.3711225684 -0.2465412836 0.5103075333
0.3671119583 -0.2576835150 0.4786843575
0.3584451145 -0.2733405767 0.4470028357
0.3483235542 -0.2770833602 0.5159671970
0.3414916866 -0.2865748217 0.5116932329
0.3428052314 -0.2852572835 0.5088219073
0.3411226364 -0.2941516390 0.4537924385
0.3369601537 -0.2907339325 0.5181035630
0.3317835833 -0.3030623248 0.4639383647
0.3284775373 -0.2943426371 0.5639198920
0.3264058245 -0.2996568801 0.5391013104
0.2911851172 -0.3444508414 0.4486618723
0.3009602175 -0.3307232172 0.4907669107
0.3090259312 -0.3268737717 0.4591761887
0.2995167396 -0.3312774594 0.4976133801
0.2903931831 -0.3417321177 0.4790612892
0.2931035121 -0.3316104605 0.5464586225
0.2758970348 -0.3481184969 0.5269345938
0.2613410261 -0.3670373810 0.4531985261
0.2764021060 -0.3467415774 0.5363474106
0.2608092566 -0.3620078652 0.5049233535
0.2648017310 -0.3582211823 0.5118068237
0.2331213890 -0.3828756569 0.4785794516
0.2575676744 -0.3686280108 0.4652684956
0.2534180310 -0.3724510014 0.4533177460
0.2343142475 -0.3800069847 0.4999514783
0.2329076080 -0.3753466814 0.5562851424
0.2196037246 -0.3881142389 0.5089022914
0.2206533644 -0.3881985730 0.5021719563
0.2047847061 -0.3995254441 0.4695662294
0.2092849998 -0.3922426353 0.5222151920
0.1920187519 -0.4076279321 0.4541037156
0.1938269067 -0.4056313355 0.4653510855
0.1784725373 -0.4129181347 0.4596800512
0.1693236416 -0.4178972524 0.4464602747
0.1529280299 -0.4199147246 0.4993774693
0.1596851519 -0.4192187938 0.4761406865
0.1529520266 -0.4143343721 0.5611248266
0.1279267375 -0.4307677459 0.4657760090
0.1435132826 -0.4220448385 0.5092312293
0.1427151509 -0.4238659001 0.4912836276
0.1190802688 -0.4273404699 0.5367247331
0.1221735886 -0.4313460267 0.4799119978
0.1056261820 -0.4328554876 0.5117906105
0.1035791340 -0.4332199028 0.5128168697
0.1047654087 -0.4343716538 0.4963038730
0.0882967736 -0.4378075180 0.4987409482
0.0899450373 -0.4366829487 0.5076341553
0.0894539006 -0.4331696994 0.5500890672
0.0552965263 -0.4453273655 0.4725664741
0.0643886321 -0.4414691686 0.5042168787
0.0647974485 -0.4424662954 0.4917053873
0.0702973015 -0.4359434448 0.5607352093
0.0399263756 -0.4493562929 0.4487419779
0.0312214788 -0.4424980050 0.5364110560
0.0199234646 -0.4462038581 0.4978160311
0.0309073128 -0.4476356649 0.4748575912
0.0067656628 -0.4492435932 0.4681970595
0.0041713736 -0.4469043712 0.4976177985
-0.0131565026 -0.4460082843 0.5037174079
-0.0208974030 -0.4503316366 0.4477833599
-0.0150205565 -0.4462343800 0.5000280753
-0.0059980174 -0.4424775865 0.5498384237
-0.0116678230 -0.4416021781 0.5574010476
-0.0227277118 -0.4407855803 0.5614490714
-0.0592713458 -0.4460904971 0.4574518334
-0.0397632288 -0.4406658413 0.5527725447
-0.0626718201 -0.4451083308 0.4638114560
-0.0523044444 -0.4401831707 0.5387894762
-0.0752818838 -0.4363362941 0.5484162696
-0.1042246729 -0.4360687684 0.4783199834
-0.0879960597 -0.4373983159 0.5047670040
-0.0948496532 -0.4367111748 0.4950709928
-0.1080411355 -0.4283615287 0.5584437768
-0.1125007274 -0.4330788610 0.4918052004
-0.1113535984 -0.4331093419 0.4944219487
-0.1174072721 -0.4283561333 0.5315808422
-0.1253325699 -0.4276933221 0.5105835722
-0.1449907802 -0.4242198211 0.4793839756
-0.1336033786 -0.4218183605 0.5479198244
-0.1307138396 -0.4244261514 0.5284977254
-0.1765027480 -0.4131653420 0.4665133810
-0.1609362759 -0.4197728082 0.4647603516
-0.1828482641 -0.4108885210 0.4626111236
-0.1723146414 -0.4071361997 0.5527589850
-0.1784615625 -0.4081357970 0.5133767891
-0.2032262260 -0.4000641218 0.4732201487
-0.2003473951 -0.3983350016 0.5077001242
-0.1961288078 -0.4027231151 0.4843167443
-0.2192393683 -0.3849374944 0.5455065021
-0.2152274095 -0.3904765299 0.5087681076
-0.1895137399 -0.3988410646 0.5625600870
-0.2327708377 -0.3858997419 0.4510623820
-0.2337293245 -0.3855544047 0.4483763732
-0.2406221729 -0.3754624953 0.5062082670
-0.2549878859 -0.3691066178 0.4778732080
-0.2562613870 -0.3677576196 0.4833060311
-0.2794054927 -0.3512378192 0.4728000270
-0.2576569801 -0.3632418021 0.5171380741
-0.2580151344 -0.3657406791 0.4907366431
-0.2773803653 -0.3465664966 0.5318848826
-0.2862908806 -0.3413901311 0.5161337718
-0.3042599853 -0.3274545767 0.4935496954
-0.2959947225 -0.3320898473 0.5196057549
-0.3054748518 -0.3303984918 0.4577939255
-0.3141390291 -0.3195769971 0.4831722792
-0.2977814540 -0.3304041319 0.5200174440
-0.3138100907 -0.3184446308 0.4959109965
-0.3153353475 -0.3120279551 0.5380190194
-0.3311117666 -0.3011672559 0.4865874548
-0.3342479042 -0.2974806875 0.4887939925
-0.3391498204 -0.2936034399 0.4768612269
-0.3224975525 -0.3047641355 0.5336328431
-0.3637934077 -0.2647950944 0.4595707748
-0.3433699850 -0.2837064559 0.5159156766
-0.3475161564 -0.2810532437 0.4958521911
-0.3398673045 -0.2816933899 0.5638285595
-0.3629720074 -0.2640940552 0.4724704480
-0.3685442648 -0.2496215225 0.5177476180
-0.3711298596 -0.2519903310 0.4763300678
-0.3698482395 -0.2467563595 0.5230095201
-0.3802551923 -0.2318299330 0.5139419866
-0.3770382007 -0.2303710229 0.5559819301
-0.3832625876 -0.2308689513 0.4896647553
-0.3967818078 -0.2059591126 0.4924914822
-0.3904326167 -0.2175159318 0.4959811375
-0.3953074282 -0.2053501690 0.5116046202
-0.3995897833 -0.1911233283 0.5451014115
-0.3849725474 -0.2167829749 0.5582795891
-0.4093760111 -0.1836307550 0.4752466754
-0.4060521892 -0.1855092278 0.5035567252
-0.4076578803 -0.1894736136 0.4674328916
-0.4173327096 -0.1630340602 0.4816460180
-0.4033197962 -0.1822353456 0.5490251533
-0.4180384265 -0.1520978450 0.5237244397
-0.4233579459 -0.1387506229 0.5111093434
-0.4204791169 -0.1428210689 0.5293309542
-0.4200765008 -0.1371469799 0.5543361978
-0.4263617859 -0.1231159205 0.5330690739
-0.4266022791 -0.1230047415 0.5307252278
-0.4410110127 -0.0892749806 0.4581649665
-0.4283501762 -0.1127947837 0.5453433843
-0.4377279584 -0.0888137164 0.4977612684
-0.4316750267 -0.0965321020 0.5486283946
-0.4395922543 -0.0811664561 0.4958024462
-0.4434842189 -0.0585955867 0.4885102398
-0.4398085432 -0.0729169942 0.5097767793
-0.4465297956 -0.0544436922 0.4587758308
-0.4444964868 -0.0401827022 0.5054396891
-0.4408090057 -0.0517607531 0.5311417231
-0.4500843902 -0.0209988110 0.4495745761
-0.4496052057 -0.0319125012 0.4496094540
-0.4434527686 -0.0268100125 0.5261930181
-0.4429351886 -0.0215005107 0.5351689858
-0.4448042964 -0.0208954235 0.5130545805
-0.4473397632 -0.0022223108 0.4923465144
-0.4495606826 0.0060978356 0.4634904865
-0.4496252546 0.0228901603 0.4539216766
-0.4406313683 0.0199486888 0.5634540806
-0.4443636406 0.0211296813 0.5180023133
-0.4448271846 0.0283213465 0.5086869956
-0.4440139249 0.0701161051 0.4636299909
-0.4455106073 0.0441522145 0.4866106502
-0.4467794683 0.0592146518 0.4478083003
-0.4377080497 0.0709343312 0.5374101519
-0.4397626394 0.0625199578 0.5261970885
-0.4383888981 0.1006099717 0.4587541183
-0.4390735758 0.0960260711 0.4626004145
-0.4424384988 0.0825179666 0.4581413689
-0.4310893719 0.1125155723 0.5132710742
-0.4344337087 0.1021950303 0.5009654047
-0.4305421075 0.1065662052 0.5350783500
-0.4270806320 0.1266954177 0.5107348565
-0.4308878794 0.1253156839 0.4722835743
-0.4238181542 0.1475085610 0.4729723007
-0.4206416359 0.1342310752 0.5571914978
-0.4244401804 0.1395478578 0.4945565185
-0.4158759452 0.1536439588 0.5393046629
-0.4143089842 0.1662614857 0.4987421553
-0.4161693163 0.1574206319 0.5187154203
-0.4038090449 0.1823639158 0.5414539469
-0.4060164634 0.1797363267 0.5289745786
-0.3924622014 0.2191534566 0.4634817253
-0.3995669406 0.1896785019 0.5516114830
-0.4004703726 0.1907922990 0.5357680969
-0.3880968198 0.2199572009 0.5055486744
-0.3974218832 0.1970734383 0.5333694902
-0.3915557227 0.2164005935 0.4884516371
-0.3845439774 0.2222516418 0.5302833515
-0.3810751193 0.2254168698 0.5450260841
-0.3680323327 0.2548236613 0.4873606718
-0.3715388574 0.2506213334 0.4789898059
-0.3638959299 0.2516531024 0.5496342682
-0.3659822105 0.2566509196 0.4958194755
-0.3574814576 0.2656372318 0.5112078367
-0.3573104570 0.2727985674 0.4606067550
-0.3453239169 0.2795486995 0.5253291599
-0.3560796133 0.2650437031 0.5288710198
-0.3324132947 0.2949989039 0.5221387867
-0.3356075589 0.2999531310 0.4539218685
-0.3371691505 0.2919178192 0.5051859715
-0.3172405263 0.3101479624 0.5337078036
-0.3173266008 0.3119900302 0.5179584323
-0.3176783287 0.3104310118 0.5275147192
-0.3164488776 0.3176351900 0.4787990916
-0.3033581747 0.3293133989 0.4818975300
-0.2964168393 0.3296636561 0.5350532450
-0.2874021619 0.3360632262 0.5513912862
-0.2973066820 0.3332967375 0.4958215444
-0.2830707003 0.3455574717 0.4969346418
-0.2773382047 0.3481718062 0.5138058017
-0.2626806915 0.3652744182 0.4580492274
-0.2539096863 0.3621710397 0.5515945870
-0.2690257285 0.3525476604 0.5328074827
-0.2265499871 0.3897051784 0.4493610079
-0.2528680560 0.3670936983 0.5086147734
-0.2487577965 0.3744638933 0.4605214980
-0.2238580796 0.3856005901 0.5083651764
-0.2280102058 0.3879396876 0.4578206157
-0.2452020006 0.3692384644 0.5363057848
-0.2074694406 0.3944687854 0.5058289752
-0.1994009238 0.4034619483 0.4547712637
-0.2059798449 0.3911929315 0.5490867318
-0.1986877628 0.3981468410 0.5154507253
-0.1920021962 0.4074455933 0.4534049056
-0.1614096798 0.4187079718 0.4709066284
-0.1778083748 0.4125455299 0.4638822020
-0.1698231203 0.4146767818 0.4769728826
-0.1784148433 0.4050106357 0.5448506379
-0.1583788902 0.4122933859 0.5558974380
-0.1421586917 0.4231020777 0.4988030770
-0.1481386139 0.4182792173 0.5323625336
-0.1492569527 0.4229576952 0.4748011596
-0.1428467052 0.4182851440 0.5513770428
-0.1363473606 0.4215403861 0.5376036018
-0.1168801136 0.4337480058 0.4683162981
-0.1086333364 0.4314187504 0.5173742039
-0.0918185467 0.4376724171 0.4877255899
-0.0956654555 0.4312689337 0.5527624944
-0.0791899469 0.4346477141 0.5560168023
-0.0851946725 0.4362418042 0.5217137888
-0.0771243260 0.4383970733 0.5171524128
-0.0735274281 0.4358371234 0.5532733790
-0.0616023151 0.4435435447 0.4802630906
-0.0439756752 0.4465146749 0.4725870473
-0.0432516833 0.4447045864 0.4953001427
-0.0318991504 0.4431050358 0.5249607877
-0.0385235228 0.4414799024 0.5410105087
-0.0285997119 0.4441399840 0.5142577979
-0.0155342166 0.4413416997 0.5546574702
-0.0170412017 0.4446326221 0.5143821624
-0.0069491334 0.4466574599 0.4953360475
0.0074475819 0.4433174143 0.5350670473
0.0355505850 0.4487398077 0.4552811081
0.0315083045 0.4444325296 0.5091287039
0.0282717810 0.4442271946 0.5132815794
0.0371011863 0.4422281835 0.5326961850
0.0420187224 0.4401665761 0.5511409100
0.0471136888 0.4478285729 0.4518144842
0.0420479823 0.4445165660 0.4992512404
0.0587604819 0.4404775664 0.5210929992
0.0708852144 0.4401961391 0.5053603592
0.0973953843 0.4393972336 0.4528887939
0.0802486250 0.4368055767 0.5276804630
0.0924954399 0.4350541285 0.5164922179
0.1016754731 0.4318947413 0.5295975898
0.1078062451 0.4296180163 0.5402945966
0.1087848782 0.4296129599 0.5378176171
0.1203969210 0.4302408771 0.4951858858
0.1305172949 0.4272562574 0.4927601344
0.1509718958 0.4181281854 0.5233854114
0.1380927443 0.4244469543 0.4975166970
0.1491906545 0.4210501337 0.4963725961
0.1623334735 0.4139719478 0.5184790843
0.1573340383 0.4222615194 0.4495742305
0.1610956486 0.4188191790 0.4704496065
0.1824915682 0.4096981036 0.4733048757
0.1860815291 0.4050385377 0.5086423589
0.2190623618 0.3928998688 0.4574701470
0.1926062480 0.3991109178 0.5383462914
0.1922076339 0.4037770283 0.4907411787
0.2157230790 0.3847473310 0.5629496459
0.1999426266 0.3952787423 0.5384215064
0.2043513487 0.3932293765 0.5357565718
0.2349583900 0.3807774528 0.4848063489
0.2324310224 0.3823564420 0.4851107145
0.2544196964 0.3692165198 0.4763566414
0.2313570880 0.3766636458 0.5497237317
0.2401300215 0.3747921822 0.5120921388
0.2879693320 0.3464189411 0.4522345454
0.2729425385 0.3565424273 0.4654521449
0.2789078733 0.3538061010 0.4479956631
0.2685755665 0.3524216203 0.5364559371
0.2785928947 0.3490261454 0.4957529152
0.2906533567 0.3446944141 0.4479670086
0.2897095883 0.3377357654 0.5168853761
0.2913575638 0.3350027237 0.5276198510
0.3087818535 0.3198565846 0.5203806794
0.2979683934 0.3257590919 0.5558901938
0.2984140652 0.3245095761 0.5633688448
0.3298851606 0.3066450890 0.4490811765
0.3318538327 0.3041977250 0.4515643061
0.3341689022 0.2931239803 0.5209582545
0.3285065496 0.2981436171 0.5303746626
0.3364011156 0.2899138250 0.5271881623
0.3594550361 0.2666139609 0.4839899799
0.3558315596 0.2755315408 0.4535355103
0.3559519437 0.2709182326 0.4859419608
0.3499469836 0.2705279082 0.5458850871
0.3601662521 0.2547352928 0.5639415868
0.3758844856 0.2398607303 0.5030060809
0.3676702735 0.2555104367 0.4853116967
0.3659538878 0.2541122012 0.5116834409
0.3829392788 0.2302963919 0.4932856861
0.3796159334 0.2352193220 0.4951627564
0.3747601792 0.2363164169 0.5372980446
0.3954077611 0.2078346898 0.4935909000
0.3965113128 0.2047177708 0.4991410575
0.3997449957 0.1939654770 0.5244832577
0.4005629178 0.1961615865 0.5035236350
0.3990494126 0.1999140983 0.4987876626
0.4207460598 0.1609258091 0.4505292577
0.4033463161 0.1862301065 0.5274449938
0.4066809763 0.1814908540 0.5121958049
0.4103764435 0.1711236628 0.5188307659
0.4080407144 0.1680368117 0.5588612825
0.4242885753 0.1490270345 0.4607205587
0.4316520830 0.1234606173 0.4688841618
0.4254077419 0.1463289650 0.4576688124
0.4200841654 0.1354992357 0.5575785861
0.4308155000 0.1166425894 0.5029375115
0.4332975018 0.1175055997 0.4715216354
0.4382568857 0.1004226503 0.4592644637
0.4345447807 0.1066117045 0.4866488606
0.4322956606 0.0989664103 0.5327097998
0.4324755418 0.0914801700 0.5500744837
0.4354185914 0.0860313560 0.5297534867
0.4444643808 0.0641217409 0.4661619583
0.4462433986 0.0556739751 0.4582498442
0.4411596262 0.0710600364 0.4946062847
0.4391503115 0.0648196279 0.5283247317
0.4399834999 0.0522805243 0.5381539472
0.4501211900 0.0067356558 0.4549297380
0.4497897625 0.0266231495 0.4484851001
0.4483513153 0.0114120856 0.4737394330
0.4447156130 0.0000263116 0.5233017407
0.4473214152 0.0035249746 0.4902114008
0.4485621664 0.0038505272 0.4751529679
0.4425459921 -0.0120038647 0.5691804665
0.4573761397 -0.0097175760 0.6121458785
0.4557597141 -0.0177158731 0.6084429823
0.4786693969 -0.0007065135 0.6731114323
0.4879601475 -0.0239524682 0.7031739327
0.4933271990 -0.0229466835 0.7187042395
0.4925166404 -0.0421698910 0.7187997999
0.4720592788 -0.0362007044 0.6583488739
0.4550283685 -0.0596353436 0.6166718548
0.4487216861 -0.0556774889 0.5968974118
0.4679442657 -0.0553768159 0.6524361913
0.4464318226 -0.0468808942 0.5869002720
0.4368383412 -0.0693652295 0.5677321785
0.4728117532 -0.0764647088 0.6745589123
0.4473078053 -0.0730039766 0.5994306175
0.4881504197 -0.0683181370 0.7158497390
0.4898559550 -0.0691344574 0.7210964495
0.4514532984 -0.1027698114 0.6285473487
0.4521768286 -0.0925809948 0.6241652556
0.4878984286 -0.0869030190 0.7223731434
0.4484237955 -0.0898075281 0.6117158073
0.4463357147 -0.1148986047 0.6216387686
0.4818535299 -0.1120910439 0.7210873795
0.4591352842 -0.1180473498 0.6601105751
0.4741317222 -0.1202799735 0.7042635768
0.4798877863 -0.1014641903 0.7087585494
0.4792515013 -0.1303800454 0.7256830685
0.4255549208 -0.1213874463 0.5682793875
0.4325746417 -0.1164051882 0.5834541656
0.4441475084 -0.1192466683 0.6181708883
0.4802397130 -0.1369817700 0.7342146615
0.4338932088 -0.1497968030 0.6164125617
0.4753791585 -0.1329435738 0.7171482576
0.4498083638 -0.1536829391 0.6641201273
0.4054203692 -0.1791311342 0.5703303931
0.4231000263 -0.1665569881 0.6039965123
0.4378653911 -0.1748032213 0.6530051844
0.4211725742 -0.1539967467 0.5848016771
0.4597140193 -0.1915929109 0.7307233587
0.4218249814 -0.1910983877 0.6279505968
0.4186253137 -0.1879415809 0.6157852968
0.4310273249 -0.1838572430 0.6446730565
0.4421016641 -0.1923009354 0.6840001090
0.3997891625 -0.1939880753 0.5734386973
0.3945259918 -0.2002186928 0.5682238072
0.4013088067 -0.2123568493 0.6021858430
0.4207684206 -0.2128790583 0.6532887987
0.4245122558 -0.2320943960 0.6889100250
0.4235906154 -0.2182931833 0.6679059292
0.4161920306 -0.2361226548 0.6727977619
0.4436842047 -0.2154381935 0.7160894812
0.4224528022 -0.2208243958 0.6683739452
0.3992830704 -0.2360246170 0.6300452209
0.3766685692 -0.2459412403 0.5899280953
0.3707602549 -0.2465495983 0.5763353502
0.3865713637 -0.2453100211 0.6133202750
0.4003021681 -0.2599423492 0.6700924947
0.3871683856 -0.2584366244 0.6353914660
0.4182341121 -0.2585688734 0.7120894331
0.3788948478 -0.2639860196 0.6237286422
0.3521471042 -0.2704697997 0.5729736736
0.3571874263 -0.2785589666 0.5990273196
0.3926338645 -0.2786267973 0.6812610929
0.3914111137 -0.2859941023 0.6915230358
0.3485434636 -0.2880939834 0.5959424347
0.3597287236 -0.2892602331 0.6239249974
0.3893217451 -0.3002927290 0.7120664391
0.3681312806 -0.2859896906 0.6375847706
0.3772011545 -0.3063929299 0.6948165801
0.3436506962 -0.2918516437 0.5919182893
0.3215089961 -0.3097877593 0.5795964745
0.3690164026 -0.3134581967 0.6891060190
0.3465494286 -0.3142031573 0.6422060363
0.3250104932 -0.3154171987 0.5982347249
0.3685349343 -0.3334794138 0.7275853593
0.3508061191 -0.3386719284 0.6996839718
0.3415040667 -0.3163999757 0.6356743219
0.3545376832 -0.3335048477 0.6975098168
0.3197083158 -0.3288581870 0.6149748268
0.3091585521 -0.3384708244 0.6148793282
0.3058249069 -0.3350099516 0.6008460273
0.3098002359 -0.3438335423 0.6277009514
0.3340933803 -0.3691638401 0.7301165422
0.3251600565 -0.3574223902 0.6872369653
0.3462260673 -0.3536345112 0.7206642901
0.3344052905 -0.3596721148 0.7103201789
0.2965735974 -0.3665240950 0.6525143443
0.2631436148 -0.3570475739 0.5711804882
0.2916756072 -0.3666806120 0.6441750960
0.2882194889 -0.3539636111 0.6085888295
0.2874039844 -0.4039194280 0.7228773166
0.3127784201 -0.3869940968 0.7287148813
0.2859425898 -0.3759166747 0.6553838693
0.2683147164 -0.3799006733 0.6333112686
0.2929840439 -0.4013973178 0.7269419317
0.2403461236 -0.3899533532 0.6136530048
0.2501273285 -0.3654991271 0.5687965709
0.2817156318 -0.4038683136 0.7128406685
0.2640344693 -0.3811558031 0.6291710723
0.2624635402 -0.4040572817 0.6830916261
0.2748912683 -0.4104067159 0.7182296147
0.2297301038 -0.3977082306 0.6160879283
0.2450222641 -0.4162666075 0.6857840263
0.2739727635 -0.4138493819 0.7252652519
0.2152354683 -0.3854832559 0.5648104911
0.2199534754 -0.4134450165 0.6435708499
0.2237348029 -0.3948256585 0.6004730778
0.2234582687 -0.4052670062 0.6271311906
0.2220080107 -0.4257813076 0.6782934540
0.2095090717 -0.4139583934 0.6308002612
0.2324748131 -0.4409334816 0.7316688258
0.2198179273 -0.4296567744 0.6853774336
0.1728292391 -0.4259194400 0.6182907473
0.1888563109 -0.4206874864 0.6220453132
0.1893229254 -0.4081400574 0.5886932117
0.1894968274 -0.4095974476 0.5928215254
0.2023817462 -0.4544623608 0.7282830661
0.1654766867 -0.4299044057 0.6208229301
0.1704348733 -0.4480237551 0.6752062623
0.1846311878 -0.4625074707 0.7301198458
0.1806676917 -0.4494373723 0.6904585930
0.1595567367 -0.4495134063 0.6680081848
0.1306864933 -0.4221435091 0.5665109230
0.1340110837 -0.4311448903 0.5944800608
0.1414106003 -0.4245366892 0.5825766968
0.1337028953 -0.4607979841 0.6767728987
0.1185030530 -0.4403502132 0.6065171767
0.1467146113 -0.4707452020 0.7158699180
0.1515590363 -0.4667754656 0.7090575735
0.1199676231 -0.4466414269 0.6253198593
0.1137563228 -0.4587758323 0.6558775531
0.1007093931 -0.4344176216 0.5782012495
0.0914454321 -0.4420944962 0.5942214873
0.0872579837 -0.4353440938 0.5723333692
0.0808140607 -0.4446579844 0.5948006329
0.1059692654 -0.4687389031 0.6793450827
0.0974078869 -0.4574259438 0.6416879068
0.0855512758 -0.4716715504 0.6747796392
0.0459554933 -0.4443401479 0.5799194193
0.0724214885 -0.4725255457 0.6716073256
0.0719823523 -0.4437046078 0.5880386340
0.0653691500 -0.4676870173 0.6549074779
0.0674383367 -0.4902329382 0.7209723434
0.0626939718 -0.4955656566 0.7346060850
0.0731288258 -0.4796623406 0.6925330747
0.0516993687 -0.4575591804 0.6203749198
0.0416357367 -0.4700073587 0.6525852480
0.0121896885 -0.4507379356 0.5924828879
0.0300189464 -0.4644757779 0.6348225230
0.0386300108 -0.4554770062 0.6096559209
0.0289392431 -0.4780105470 0.6741770172
0.0018962993 -0.4488614740 0.5857002077
0.0177300702 -0.4977896862 0.7304334645
0.0232187795 -0.4772366698 0.6711894610
0.0031905500 -0.4515934368 0.5938340351
0.0032396501 -0.4535427097 0.5995256969
-0.0052485476 -0.4611869735 0.6220548102
-0.0117786648 -0.4744772228 0.6616440105
-0.0028097937 -0.4596098452 0.6171463828
-0.0108565058 -0.4728336300 0.6567335573
-0.0267650708 -0.4821790311 0.6860260087
-0.0215245826 -0.4984837940 0.7329264330
-0.0319788997 -0.4851630391 0.6953995660
-0.0200370241 -0.4724735601 0.6568479341
-0.0618927525 -0.4470757439 0.5939005263
-0.0467907256 -0.4915892915 0.7169964503
-0.0401649779 -0.4504988035 0.5954934208
-0.0435551561 -0.4536567756 0.6059342947
-0.0803014675 -0.4708515088 0.6697354175
-0.0570464035 -0.4879410023 0.7103425487
-0.0754732520 -0.4902486344 0.7240349103
-0.0758108659 -0.4375466223 0.5716384083
-0.0583718624 -0.4854640184 0.7036784154
-0.0942211083 -0.4539054448 0.6295526417
-0.0876120133 -0.4702713806 0.6720121052
-0.0910975869 -0.4361309438 0.5769235939
-0.0958635135 -0.4657137688 0.6642426085
-0.1110018983 -0.4398192199 0.6000241741
-0.1043914165 -0.4571169232 0.6451383698
-0.1075432742 -0.4680385587 0.6782600382
-0.1155883032 -0.4647781402 0.6740601019
-0.1306094920 -0.4464397308 0.6339849840
-0.1394592827 -0.4188331963 0.5648808745
-0.1327120479 -0.4535851828 0.6557256137
-0.1311358588 -0.4550102905 0.6583108730
-0.1359727267 -0.4384503192 0.6164444184
-0.1608737497 -0.4674951194 0.7191152489
-0.1668646473 -0.4676829550 0.7248830895
-0.1417601823 -0.4707201684 0.7113596600
-0.1413274407 -0.4458987120 0.6418817288
-0.1691011763 -0.4603847851 0.7068866760
-0.1539558488 -0.4206447691 0.5828381543
-0.1855451517 -0.4048521622 0.5754511440
-0.1776229199 -0.4061516982 0.5701273550
-0.1903285125 -0.4537765306 0.7127954265
-0.1944201607 -0.4505107115 0.7085640107
-0.1899602184 -0.4281802810 0.6433281536
-0.2026220181 -0.4350011495 0.6759007761
-0.1861512863 -0.4155982656 0.6051207502
-0.2101289827 -0.4027938715 0.6025752493
-0.2117110654 -0.4396257500 0.7001014741
-0.2096615792 -0.4207983421 0.6485728823
-0.1902254983 -0.4037570053 0.5781851404
-0.2227905119 -0.3920941307 0.5919610825
-0.2340705207 -0.4280836508 0.7003767796
-0.2181473547 -0.4289742298 0.6812032036
-0.2420807374 -0.4352222309 0.7296685438
-0.2489722063 -0.3907328160 0.6289174270
-0.2416474992 -0.3867023256 0.6074967508
-0.2433018216 -0.3852124565 0.6064249419
-0.2421817766 -0.4164305705 0.6815330245
-0.2295039358 -0.3942610567 0.6070477996
-0.2679817111 -0.3910082474 0.6594272515
-0.2623306089 -0.3968981525 0.6650614600
-0.2531008852 -0.3812398760 0.6120237044
-0.2569557331 -0.4065506410 0.6803934189
-0.2750561742 -0.3647485012 0.6099727273
-0.2739799752 -0.3590123460 0.5947718609
-0.2602818738 -0.3716677342 0.5997418895
-0.2768259996 -0.3617616768 0.6061992707
-0.2919635926 -0.3533728658 0.6136552235
-0.2945649866 -0.4033382382 0.7340250238
-0.2862602175 -0.3694741786 0.6408314334
-0.2926336216 -0.3615339923 0.6337510595
-0.2982066353 -0.3790847303 0.6843031040
-0.3055185596 -0.3240761661 0.5764213345
-0.3069249550 -0.3574837748 0.6511144618
-0.2958538752 -0.3437912568 0.5998191905
-0.3070734435 -0.3551801038 0.6464476218
-0.3222610242 -0.3618430259 0.6907370722
-0.3251442044 -0.3504249845 0.6718569842
-0.3301432876 -0.3580238367 0.6980853732
-0.3257191901 -0.3609753607 0.6956998274
-0.3390397692 -0.3163195733 0.6300001426
-0.3389398287 -0.3039559783 0.6053976257
-0.3277325743 -0.3010307065 0.5754774767
-0.3392691774 -0.3378383827 0.6729402802
-0.3565680508 -0.3473164041 0.7288936759
-0.3653308226 -0.3148230831 0.6836133805
-0.3546748281 -0.3399799854 0.7103441079
-0.3657873331 -0.3146281964 0.6842105010
-0.3513562274 -0.3202518932 0.6642746757
-0.3679386755 -0.2938001528 0.6506919193
-0.3596952961 -0.2569915310 0.5662109845
-0.3668343587 -0.2928234366 0.6463996621
-0.3617138055 -0.2879804001 0.6259389932
-0.3631984913 -0.2545047527 0.5699071820
-0.3719550357 -0.2645712552 0.6080783623
-0.3769610201 -0.2774609464 0.6425711555
-0.3893491920 -0.2914917115 0.6961990879
-0.3896944599 -0.3054400934 0.7217705352
-0.3742413935 -0.2373261307 0.5701195615
-0.3940438616 -0.2614392104 0.6567191645
-0.3718639447 -0.2506269331 0.5851413561
-0.3926180722 -0.2716987069 0.6693107618
-0.4012470727 -0.2377354428 0.6372551445
-0.4257237042 -0.2568413268 0.7275091702
-0.4072744856 -0.2781506732 0.7155222345
-0.4048624096 -0.2557702572 0.6744602479
-0.4254853489 -0.2432662234 0.7061713838
-0.4132772520 -0.2161451993 0.6379460955
-0.3946013728 -0.2145494618 0.5874416723
-0.4157544752 -0.2288149310 0.6614665217
-0.4387974628 -0.2376326940 0.7330476190
-0.4300721454 -0.2338323674 0.7053166870
-0.4288538363 -0.2298825760 0.6968307912
-0.4420206921 -0.2206622568 0.7184972091
-0.4235590931 -0.2151059640 0.6631751506
-0.4445300808 -0.2022512061 0.7013673769
-0.4172477859 -0.1652110067 0.5863977956
-0.4275101805 -0.1950371768 0.6473736036
-0.4078910825 -0.1874240183 0.5859178848
-0.4558249527 -0.1738760739 0.7000956789
-0.4567135785 -0.1805649993 0.7099702599
-0.4492141982 -0.1861850452 0.6960404626
-0.4591199403 -0.1903396946 0.7273861929
-0.4460755576 -0.1791455895 0.6797091973
-0.4221210796 -0.1380425839 0.5729763523
-0.4307274814 -0.1364702209 0.5955516095
-0.4468276690 -0.1599337066 0.6609402760
-0.4263482152 -0.1261575177 0.5743187577
-0.4386996947 -0.1280294616 0.6103410688
-0.4504714763 -0.1451354909 0.6581049907
-0.4706174213 -0.1373819179 0.7074176482
-0.4565050023 -0.1474991466 0.6769774711
-0.4489709471 -0.1137078388 0.6280398314
-0.4424399598 -0.1096332264 0.6068484441
-0.4412482807 -0.0927349195 0.5927633181
-0.4439197174 -0.1057623962 0.6086175041
-0.4790290914 -0.1019798829 0.7062821059
-0.4650223690 -0.0978765733 0.6637700205
-0.4718358651 -0.0994196136 0.6841630985
-0.4830958655 -0.0919861144 0.7115461290
-0.4541164398 -0.0969849438 0.6321269795
-0.4477290272 -0.0700179453 0.5991309418
-0.4401285901 -0.0624329222 0.5742349990
-0.4682511860 -0.0651819444 0.6566666625
-0.4413520332 -0.0641458466 0.5784307345
-0.4833961009 -0.0602888425 0.6986531507
-0.4838235350 -0.0656783731 0.7019431011
-0.4770005169 -0.0637825485 0.6814657205
-0.4926188143 -0.0454952382 0.7197232405
-0.4844168080 -0.0729468755 0.7064287427
-0.4430137895 -0.0316951129 0.5726717817
-0.4864723250 -0.0375176608 0.7002098035
-0.4571486109 -0.0222741801 0.6127216326
-0.4584138152 -0.0256755492 0.6168435744
-0.4930955294 -0.0356648887 0.7192945035
-0.4628623313 -0.0076203633 0.6275259737
-0.4935363827 -0.0279408651 0.7195920171
-0.4841921515 -0.0165504388 0.6908805752
-0.4465042133 0.0219221107 0.5816535785
-0.4621994214 0.0133987983 0.6263531830
-0.4759927643 0.0070678138 0.6657829808
-0.4834590547 0.0013745398 0.6868395376
-0.4661728576 0.0343014325 0.6406055488
-0.4527257223 0.0388433119 0.6019531911
-0.4436502375 0.0371552229 0.5752582666
-0.4687171437 0.0203680831 0.6462454274
-0.4912636913 0.0326263704 0.7135967846
-0.4402423785 0.0651269361 0.5757242135
-0.4763184493 0.0462978783 0.6729649070
-0.4396761556 0.0606784676 0.5723819356
-0.4748966421 0.0439397570 0.6679457227
-0.4516939518 0.0704595751 0.6109145545
-0.4742152224 0.0794837543 0.6795282994
-0.4665662163 0.0778523855 0.6567703440
-0.4791443573 0.0630036608 0.6875208772
-0.4665555443 0.0635638001 0.6513007729
-0.4360367018 0.0911250749 0.5770936519
-0.4593393669 0.0880252028 0.6415407567
-0.4617829311 0.0832636966 0.6454929420
-0.4423368458 0.0841835833 0.5906575207
-0.4874955969 0.1029159802 0.7312050075
-0.4861959634 0.1050927615 0.7288788886
-0.4730680292 0.1100155591 0.6945802762
-0.4803010173 0.1235746401 0.7237767514
-0.4432172696 0.1376669324 0.6316736924
-0.4413647605 0.1222516653 0.6129911483
-0.4359175948 0.1248745808 0.6001250976
-0.4373451236 0.1416461731 0.6188142681
-0.4797555805 0.1349243903 0.7309974087
-0.4713387303 0.1383028503 0.7105239951
-0.4693090190 0.1567877923 0.7210568668
-0.4593342971 0.1538373990 0.6907057705
-0.4793958183 0.1314061396 0.7269157142
-0.4147622764 0.1814540560 0.5981318532
-0.4227968829 0.1758379351 0.6135410859
-0.4206099369 0.1681854040 0.5991155020
-0.4403931528 0.1630920438 0.6467909369
-0.4316403107 0.1877220938 0.6506732850
-0.4459314077 0.1915222027 0.6934816757
-0.4376108754 0.1781674423 0.6560876209
-0.4566484667 0.1741130717 0.7029107820
-0.4497213575 0.1833885542 0.6946033820
-0.4346858056 0.2048520136 0.6785995049
-0.4209830177 0.2067432624 0.6456658567
-0.3941538878 0.2014145622 0.5689845877
-0.4115403915 0.1989214985 0.6106456300
-0.3990545816 0.2225105660 0.6101645618
-0.4304875247 0.2416936479 0.7174414299
-0.3995741016 0.2190401243 0.6068284086
-0.4324415393 0.2423201575 0.7233467346
-0.3855746489 0.2342164817 0.5936496662
-0.3943400758 0.2377549781 0.6207860799
-0.3873356774 0.2502181760 0.6231016150
-0.3695236827 0.2507577255 0.5800913077
-0.4051540651 0.2790679972 0.7122474158
-0.4035017324 0.2663252149 0.6881824095
-0.4145832404 0.2764024979 0.7312812187
-0.4053559804 0.2627920594 0.6872035586
-0.4014588789 0.2514993520 0.6598869832
-0.3876733514 0.2724580729 0.6590866331
-0.3616783868 0.2631120524 0.5822567426
-0.3742730654 0.2705320969 0.6246210985
-0.3735131432 0.2670799664 0.6167249591
-0.3459011076 0.2883511613 0.5905578355
-0.3515676233 0.2867396896 0.6008243980
-0.3512330741 0.2865487065 0.5997103317
-0.3837837904 0.3172664505 0.7296492767
-0.3475018373 0.3155860205 0.6473453722
-0.3665785378 0.3171747219 0.6915454532
-0.3297298239 0.3141334595 0.6062223743
