0.2531222228 0.2324298953 -0.4861586735
0.2284132157 0.1478337194 -0.4015624837
0.0021799397 0.2499589370 -0.5036877182
0.0904939000 0.1877952379 -0.4415240088
-0.1083804187 0.3580563656 -0.6117851646
-0.0169944566 0.4684660989 -0.7221949162
0.2496846343 0.3670779825 -0.6208067831
-0.0962397235 0.3547928700 -0.6085216685
0.1937866668 0.4293104813 -0.6830392921
0.1426879568 0.2110067903 -0.4647355651
0.1982466199 0.1952306663 -0.4489594384
0.2265740049 0.0525537575 -0.3062825061
0.2423085512 0.3883646139 -0.6420934179
0.2523956041 0.0660992775 -0.3198280283
0.2495354114 0.0592822989 -0.3130110485
0.0695456439 0.4216294743 -0.6753582839
0.1443614118 0.2797798913 -0.5335086774
0.1887110592 0.4652349506 -0.7189637674
0.1602734726 0.2523353525 -0.5060641341
0.2029276119 0.2287284255 -0.4824572032
0.2301263069 0.0592899403 -0.3130186899
0.2539721591 0.0086547900 -0.2623835313
0.1821911467 0.3387955905 -0.5925243863
0.0309551730 0.4702658303 -0.7239946479
-0.0652587196 0.4050797430 -0.6588085498
0.2549033979 0.0125756772 -0.2663044192
0.1462829393 0.2577037144 -0.5114324968
0.1124197998 0.4493288482 -0.7030576623
0.0898493090 0.2026910213 -0.4564197946
0.0051660215 0.4664132078 -0.7201420247
0.2379696991 0.1469137726 -0.4006425368
-0.1175392590 0.4820988734 -0.7358276929
0.2486558102 0.4664320496 -0.7201608665
-0.0876242263 0.4042870491 -0.6580158557
0.1833796983 0.1786002319 -0.4323290012
-0.1517811255 0.4169273832 -0.6706561919
0.0296190920 0.2592162286 -0.5129450113
0.2296415570 0.1594612477 -0.4131900139
-0.2047558024 0.4734290502 -0.7271578683
-0.1561740541 0.4763518039 -0.7300806225
-0.0221493285 0.3641570712 -0.6178858713
0.1188145630 0.2110670268 -0.4647958016
0.1838803696 0.2985318470 -0.5522606362
0.0203096954 0.2293044881 -0.4830332658
0.1221631214 0.2173479824 -0.4710767582
0.1489683009 0.1586773713 -0.4124061374
0.1562010261 0.4349870731 -0.6887158849
-0.1050594208 0.4089226392 -0.6626514467
0.2296358744 0.1743361657 -0.4280649344
0.2135527059 0.1782754979 -0.4320042673
0.1260780035 0.4415264860 -0.6952552988
0.2393305537 0.3272423214 -0.5809711154
-0.0528027099 0.4044831272 -0.6582119339
0.1733820585 0.3542491152 -0.6079779136
0.1830091204 0.1457429644 -0.3994717284
0.2616782611 0.1149191018 -0.3686478606
0.0621964589 0.2609326916 -0.5146614746
0.1921710958 0.3319253929 -0.5856541876
-0.0967619230 0.4169417646 -0.6706705734
0.2228713796 0.4656929536 -0.7194217704
0.1419582437 0.1392275897 -0.3929563525
-0.0187976145 0.2694652123 -0.5231939967
0.2458544488 0.2106003850 -0.4643291596
0.2588127403 0.1860335324 -0.4397623030
0.2416984734 0.2411648693 -0.4948936490
0.2479191707 0.1003197692 -0.3540485257
0.1766831207 0.4448465778 -0.6985753911
0.0242094145 0.2709436293 -0.5246724139
-0.2408431364 0.1512664807 -0.4049952456
-0.2547640610 0.0084920355 -0.2622207768
-0.1769651356 -0.0078621221 -0.2458666165
0.1278097740 0.0420268708 -0.2957556176
-0.0272256044 -0.0067912103 -0.2469375285
-0.1842716990 0.0825602273 -0.3362889808
0.0073205436 0.0519791678 -0.3057079162
0.1790632641 0.0323672672 -0.2860960124
0.0953632598 0.1142653103 -0.3679940690
-0.2200359040 0.2546458792 -0.5083746611
0.0551588425 -0.0020967266 -0.2516320129
0.1393331048 0.0941716794 -0.3479004348
-0.2471376881 -0.0137593966 -0.2399693410
-0.1743624802 0.2616702005 -0.5153989836
-0.1034549073 0.0526741984 -0.3064029469
-0.0024581892 0.0164059147 -0.2701346572
-0.1760761671 0.2061762541 -0.4599050280
-0.1150168508 0.1064988910 -0.3602276485
-0.1825232313 0.3322387471 -0.5859675419
0.1447494206 0.0236232538 -0.2773519976
-0.0249507948 0.2000829382 -0.4538117111
-0.0988880144 0.2018460804 -0.4555748536
0.1791740437 0.0107467418 -0.2644754835
-0.1620225287 0.0893864689 -0.3431152236
0.0777325812 -0.0028500826 -0.2508786568
0.1493358206 0.0932252461 -0.3469540013
-0.2435597391 0.3031343177 -0.5568631077
-0.0383106955 0.0956403787 -0.3493691343
-0.0634005237 0.0413657243 -0.2950944710
-0.0466189116 0.1004937107 -0.3542224671
0.2047152230 -0.0018980063 -0.2518307333
-0.0818923114 0.0291520108 -0.2828807555
0.1977752637 0.0150409357 -0.2687696781
-0.2574834701 0.3922057367 -0.6459345414
-0.2052694351 0.1137519594 -0.3674807181
-0.2581563108 0.2545231471 -0.5082519290
0.0980156973 0.0324897692 -0.2862185144
0.2395626655 -0.0105699557 -0.2431587824
-0.0005856141 0.2341821172 -0.4879108957
-0.1709807196 0.3920723402 -0.6458011448
-0.0735991815 0.2864455688 -0.5401743560
-0.0448781629 -0.0095419904 -0.2441867479
-0.2068694352 0.2446742446 -0.4984030249
-0.1652388729 0.1235554977 -0.3772842580
-0.2365362166 0.0592028398 -0.3129315894
-0.0153194125 0.0601194115 -0.3138481613
-0.0601776477 0.0617852462 -0.3155139962
0.0354961884 0.1540430325 -0.4077717978
0.0538659488 0.1172712640 -0.3710000233
-0.1105483098 0.0878123612 -0.3415411155
-0.0739304248 0.0337921659 -0.2875209113
0.1631281497 0.0509363479 -0.3046650962
-0.1952605755 -0.0119697905 -0.2417589474
-0.1038328828 -0.0099232160 -0.2438055222
-0.2112707187 0.1335307360 -0.3872594979
-0.1507115433 0.0439523759 -0.2976811230
-0.0097509655 0.0639075304 -0.3176362809
-0.2479318457 0.1811400625 -0.4348688323
0.1564798106 0.0056138913 -0.2593426320
-0.1181874537 0.2056067029 -0.4593354767
-0.1910456940 0.2940053361 -0.5477341245
0.0332197105 0.1676916451 -0.4214204126
-0.2188888279 0.3105955552 -0.5643243464
-0.1911973892 0.2432754226 -0.4970042026
-0.0924123671 0.2959680638 -0.5496968525
-0.0871673560 0.0347277937 -0.2884565393
-0.1548053875 -0.0018470359 -0.2518817037
-0.2091079040 0.3282456037 -0.5819743978
-0.1245057054 0.0498956969 -0.3036244450
-0.1142595345 0.0397258471 -0.2934545936
0.1272095840 0.0503719224 -0.3041006706
0.0431473952 0.0099167138 -0.2636454553
0.2391771959 0.0090785729 -0.2628073142
0.0875405027 0.0885180441 -0.3422467985
-0.1491677848 0.0670937468 -0.3208224978
-0.1901235255 0.3606690570 -0.6143978564
-0.1648382659 0.1108080854 -0.3645368436
-0.1643277125 0.2309572121 -0.4846859901
-0.1603922233 0.3651887193 -0.6189175195
-0.2343393817 0.4218044328 -0.6755332423
-0.1492741642 0.1484340031 -0.4021627674
-0.0076042989 0.2381278526 -0.4918566318
0.0664056306 0.1298158002 -0.3835445615
-0.2105717983 0.2056010352 -0.4593298090
-0.1304411134 0.1884726594 -0.4422014304
0.0476906499 -0.0107611725 -0.2429675656
0.0139342653 0.0425650957 -0.2962938426
-0.1113252836 0.3064179665 -0.5601467570
-0.1581359232 0.2854441725 -0.5391729596
0.0336911252 -0.0092294712 -0.2444992671
0.0501242751 0.0129690580 -0.2666978000
-0.0956506904 0.2444821114 -0.4982108917
-0.2371002495 0.3158373087 -0.5695661008
-0.1110074660 0.1753469554 -0.4290757242
-0.1038805591 0.0507167457 -0.3044454940
-0.1765730626 0.0597537092 -0.3134824590
-0.0156088127 0.0373251542 -0.2910539003
-0.2158561752 0.3608263646 -0.6145551641
-0.1163059469 0.0948878482 -0.3486166037
-0.0713186883 0.2735860687 -0.5273148537
0.1048735012 0.0056243565 -0.2593530973
0.1236878852 0.0679971736 -0.3217259247
-0.0984051517 0.1740789525 -0.4278077212
-0.0623063343 0.2548997179 -0.5086284998
-0.2250429643 0.4319090930 -0.6856379042
-0.1617128959 0.0165034042 -0.2702321468
0.1055189736 0.0356207872 -0.2893495330
-0.1843683157 0.2473545637 -0.5010833445
-0.2324358643 0.0987235782 -0.3524523344
-0.2219520533 0.1638986664 -0.4176274333
0.0630397231 0.0047806343 -0.2585093750
-0.2284662637 0.0104920597 -0.2642208013
0.0252492280 0.0500188907 -0.3037476388
-0.2150499019 0.2175025291 -0.4712313049
-0.1625202863 -0.1020314317 -0.2654886381
-0.0998777690 -0.0793801702 -0.2661445914
0.0578521832 -0.0733464611 -0.2721784958
0.2092862874 -0.0785735434 -0.2669512442
0.1053891426 -0.0735322479 -0.2719927029
-0.0483192075 -0.0769326545 -0.2685921863
-0.1997386577 -0.0720265507 -0.2734984489
-0.1574386277 -0.0791546981 0.7694837953
-0.1574386277 -0.0944898989 0.2148048590
-0.1574386277 -0.0940645714 0.3741239088
-0.1574386277 -0.0903884601 0.3209863592
-0.1574386277 -0.0833540651 0.6547712914
-0.1574386277 -0.0783583269 0.8684694655
-0.1574386277 -0.0762678557 0.4197934562
-0.1574386277 -0.0608378592 0.9438615492
-0.1574386277 -0.0742797434 0.8753043143
-0.1574386277 -0.0757802232 0.9192409439
-0.1574386277 -0.0722306765 0.7158652043
-0.1574386277 -0.0583482946 0.8146766755
-0.1574386277 -0.0789617333 0.1734666495
-0.1574386277 -0.0681048685 0.4851952373
-0.1574386277 -0.0811674547 0.2199548275
-0.1574386277 -0.0637313193 0.5143567791
-0.1574386277 -0.0742794025 0.4410285976
-0.1574386277 -0.0848261907 -0.2480839667
-0.1574386277 -0.0629632164 0.5530958909
-0.1574386277 -0.0757049201 0.3139577506
-0.1574386277 -0.0791131523 0.1184818340
-0.1574386277 -0.0938375201 -0.0966261140
-0.1574386277 -0.0915448717 -0.0001311576
-0.1574386277 -0.0847818767 0.0053926081
-0.1574386277 -0.0730453616 0.3972831612
-0.1574386277 -0.0861752035 -0.1515929492
-0.1574386277 -0.0601796171 0.5555636591
-0.1574386277 -0.0708630817 0.4784745810
-0.1574386277 -0.0573556762 0.7398415516
-0.1574386277 -0.0797570808 0.1312046372
-0.1574386277 -0.1070277674 -0.2018663598
-0.1574386277 -0.0701573993 0.3413013676
-0.1574386277 -0.0662929453 0.5978630064
-0.1574386277 -0.0633842936 0.6342516501
-0.1574386277 -0.0770728815 0.2874933904
-0.1574386277 -0.0750704135 0.0033085517
-0.1574386277 -0.0617131417 0.7976264906
-0.1574386277 -0.1017436623 0.1218464292
-0.1574386277 -0.0724560770 0.7792305271
-0.1574386277 -0.0840723916 0.4990835866
-0.1574386277 -0.0628470969 0.9114964219
-0.1574386277 -0.0959932265 0.2790754685
-0.1574386277 -0.0758010050 0.7581293529
-0.1574386277 -0.0704504593 0.7601623267
-0.1574386277 -0.0625831908 0.9080622369
-0.1574386277 -0.1018309883 0.1140087592
-0.1574386277 -0.1074388478 -0.1185210315
-0.1574386277 -0.0921270670 0.1556555019
-0.1682569004 -0.0815382892 0.6642168300
-0.1682569004 -0.0802087764 0.8288018821
-0.1682569004 -0.0993241235 0.0226059500
-0.1682569004 -0.0943016618 0.1260317772
-0.1682569004 -0.0898344826 0.5664502547
-0.1682569004 -0.0818623004 0.6336098567
-0.1682569004 -0.0812709965 0.6054668685
-0.1682569004 -0.0803840782 0.6599295117
-0.1682569004 -0.0787154514 0.7835169775
-0.1682569004 -0.0735935901 0.5165806791
-0.1682569004 -0.0755729740 0.7364316365
-0.1682569004 -0.0765437550 0.4268107001
-0.1682569004 -0.0743666126 0.1586562106
-0.1682569004 -0.0816848934 0.1357625844
-0.1682569004 -0.0808646293 -0.0447894577
-0.1682569004 -0.1023282799 -0.1892695540
-0.1682569004 -0.0608383634 0.6364578317
-0.1682569004 -0.0993921654 -0.1554134901
-0.1682569004 -0.0769746341 0.0401926195
-0.1682569004 -0.0627152912 0.5840469273
-0.1682569004 -0.0926355967 -0.1576885906
-0.1682569004 -0.0735530404 0.2788687890
-0.1682569004 -0.0967733305 -0.0660591893
-0.1682569004 -0.0697712729 0.1886648161
-0.1682569004 -0.1019797209 -0.1505919449
-0.1682569004 -0.1037273586 -0.2023664315
-0.1682569004 -0.0903792248 -0.0493023885
-0.1682569004 -0.1029879184 -0.2320765784
-0.1682569004 -0.0744911788 0.0724396728
-0.1682569004 -0.0995487873 -0.2062859023
-0.1682569004 -0.0965511234 -0.2582595480
-0.1682569004 -0.0957173098 -0.0496617161
-0.1682569004 -0.0822494269 -0.0499685795
-0.1682569004 -0.0890741948 0.1025971034
-0.1682569004 -0.0677994890 0.2029432134
-0.1682569004 -0.0745924995 0.0636308140
-0.1682569004 -0.0729248808 0.6280284094
-0.1682569004 -0.0555493222 0.9417155060
-0.1682569004 -0.0895878021 0.2505595678
-0.1682569004 -0.0814619086 0.8331983399
-0.1682569004 -0.0944152309 0.3278881044
-0.1682569004 -0.0839440129 0.5896769246
-0.1682569004 -0.0870158377 0.5947330525
-0.1682569004 -0.0915865423 0.1697720151
-0.1682569004 -0.0877834638 0.5293002898
-0.1682569004 -0.0931019374 0.2245444997
-0.1682569004 -0.1068243285 -0.1566719189
-0.1682569004 -0.0874340783 0.4557178922
-0.2391492056 0.0101912363 -0.3557159956
-0.2487743250 0.0346015075 -0.3801262667
-0.2529161247 0.0765564819 -0.4220812411
-0.2519171187 -0.0341096855 -0.3114150737
-0.2456802193 -0.0328867658 -0.3126379934
-0.2437214271 -0.0389067910 -0.3066179682
-0.2502873220 -0.0078851669 -0.3376395924
-0.2371546721 -0.0154908604 -0.3300339037
-0.2391408399 0.2715870789 -0.6171119586
-0.2340817829 0.3818803886 -0.7274052446
-0.2594585250 0.4196724535 -0.7651972346
-0.2461692938 0.3905565095 -0.7360813329
-0.2431744452 0.2587277122 -0.6042525861
-0.2530119291 0.3150057250 -0.6605305562
-0.2371016454 0.3101265047 -0.6556513767
-0.2341956773 0.1811675981 -0.5266925196
-0.2486631558 0.4044438064 -0.7499686191
-0.2456980598 0.3999046438 -0.7454294652
-0.2373510076 0.1663100566 -0.5118349751
-0.2419744665 0.2588889119 -0.6044137887
-0.2445597042 0.2986839200 -0.6442087774
-0.2410314824 0.2583885153 -0.6039133946
-0.2618721561 0.2274546093 -0.5729793686
-0.2557585305 0.0584408377 -0.4039655969
-0.2618686716 0.2784160580 -0.6239408173
-0.2470720657 0.0890488444 -0.4345736036
-0.2469661670 0.1028630032 -0.4483877624
-0.2575867558 0.0658979570 -0.4114227163
-0.2606217210 0.3139758228 -0.6595005821
-0.2240422049 -0.0924580685 -0.2943779447
-0.2130737065 0.0103254249 -0.3558504048
-0.2149658701 -0.0104477212 -0.3350772656
-0.2202246419 0.3731698783 -0.7186947394
-0.2149472327 0.3544332097 -0.6999580769
-0.2210501045 0.0797013703 -0.4252263275
-0.2204215002 0.2096455817 -0.5551704964
-0.2213325602 0.1107723214 -0.4562972684
-0.2153037466 0.0141370805 -0.3596620591
-0.2189940220 0.0035885465 -0.3491135286
-0.1975664298 -0.0445507340 -0.3009742639
-0.1997515299 0.2660524342 -0.6115773303
-0.1973956299 0.0913759333 -0.4369008867
-0.1927258456 0.3978831697 -0.7434080227
-0.1899492578 0.3687320563 -0.7142569188
-0.1921165716 0.1068973183 -0.4524222666
-0.1944752057 0.3508849990 -0.6964098674
-0.1912944289 0.1737552388 -0.5192801652
-0.1955052332 0.0900718981 -0.4355968519
-0.1985325103 -0.0686901986 -0.2768348072
-0.1775924102 0.0051868426 -0.3507118243
-0.1720822871 -0.0065043693 -0.3390206162
-0.1715094443 0.0191551922 -0.3646801693
-0.1742354315 0.3063073146 -0.6518321976
-0.1707778825 0.0820844591 -0.4276094155
-0.1722525922 0.2376240747 -0.5831489802
-0.1705429104 0.0906014780 -0.4361264316
-0.1765993911 0.1232017100 -0.4687266529
-0.1774949836 0.2985189338 -0.6440438194
-0.1771224415 0.0473996156 -0.3929245834
-0.1542761704 0.2087192331 -0.5542441480
-0.1500976374 -0.0189318463 -0.3265931433
-0.1534905770 0.0078530773 -0.3533780580
-0.1539029438 0.3718393428 -0.7173642043
-0.1499189463 0.1577013078 -0.5032262395
-0.1557978582 0.3898991265 -0.7354239821
-0.1490619912 0.1304992078 -0.4760241483
-0.1558095604 0.1260527675 -0.4715777096
-0.1498993867 0.0804592558 -0.4259842127
-0.1565844969 0.1415577658 -0.4870827027
-0.1262139693 -0.0622173507 -0.2833076530
-0.1344697745 0.2936848845 -0.6392097716
-0.1339812214 0.3737788002 -0.7193036611
-0.1255640638 0.1412461173 -0.4867710543
-0.1283740470 0.3844877146 -0.7300125720
-0.1305492887 0.3647916453 -0.7103165091
-0.1267824437 0.2126040551 -0.5581289688
-0.1353509654 0.1035382695 -0.4490632189
-0.1286702054 -0.0381721793 -0.3073528165
-0.1167392996 -0.0870341981 -0.2889540694
-0.1092292938 0.1378845120 -0.4834094501
-0.1093523019 0.0626583305 -0.4081832933
-0.1061557826 0.1202842705 -0.4658092144
-0.1040283903 0.3707259769 -0.7162508388
-0.1050346794 0.0364683207 -0.3819932921
-0.1035403222 0.0544305836 -0.3999555491
-0.1062406756 0.2298053473 -0.5753302554
-0.1118537338 -0.0205517133 -0.3249732767
-0.1119538602 -0.0399224437 -0.3056025527
-0.0937983947 -0.0789549173 -0.2808747814
-0.0842268648 0.0443173140 -0.3898422829
-0.0869864896 0.0900041875 -0.4355291414
-0.0914454641 0.4195965305 -0.7651213764
-0.0851533363 0.3064085933 -0.6519334762
-0.0862478435 0.1828343653 -0.5283592888
-0.0901052500 0.3778910700 -0.7234159295
-0.0851860482 0.3092492868 -0.6547741688
-0.0871481356 0.1321340956 -0.4776590356
-0.0914845054 -0.0163454035 -0.3291795852
-0.0644644469 -0.0700663242 -0.2754586821
-0.0672433664 0.2416655684 -0.5871904725
-0.0693427661 0.3254062130 -0.6709310897
-0.0618034592 0.0398538593 -0.3853788296
-0.0616399228 0.2114076692 -0.5569325833
-0.0687368236 0.3663630546 -0.7118879179
-0.0615809699 0.4093534169 -0.7548782661
-0.0624825398 0.4086231959 -0.7541480453
-0.0696878809 0.2120689759 -0.5575938898
-0.0642880906 0.0781976763 -0.4237226340
-0.0428968826 0.1029930507 -0.4485180003
-0.0438387180 -0.0520819455 -0.2934430548
-0.0441054088 0.1052624905 -0.4507874393
-0.0409907526 0.3744367068 -0.7199615675
-0.0402113920 0.0523671492 -0.3978921153
-0.0395554110 0.4245096217 -0.7700344660
-0.0424328651 0.1445790970 -0.4901040330
-0.0484785513 0.2569152601 -0.6024401592
-0.0492088675 0.3108330883 -0.6563579699
-0.0460969007 0.2350051593 -0.5805300657
-0.0207750549 0.0903597687 -0.4358847225
-0.0191413501 -0.0090214115 -0.3365035748
-0.0240708164 0.1089517524 -0.4544767000
-0.0219538825 0.2417362052 -0.5872611094
-0.0199915480 0.4000670000 -0.7455918523
-0.0189310366 0.2064401729 -0.5519650886
-0.0195388559 0.4159552717 -0.7614801187
-0.0269869164 0.3549055805 -0.7004304476
-0.0253938463 0.2367058257 -0.5822307315
-0.0224973782 0.1844920777 -0.5300170006
-0.0007764216 0.1637027403 -0.5092276700
-0.0012438068 0.0870888245 -0.4326137793
0.0020716483 0.4140455964 -0.7595704441
-0.0010798356 0.3427653023 -0.6882901734
0.0012195871 0.3884015967 -0.7339264528
-0.0015723594 0.3392205049 -0.6847453771
0.0026514825 0.2195452453 -0.5650701568
-0.0049144260 0.0280833408 -0.3736083149
-0.0016539052 0.0094914919 -0.3550164721
0.0057310686 -0.0747515433 -0.2766714036
0.0190783443 0.2010620875 -0.5465870050
0.0166949140 0.0150541234 -0.3605791018
0.0255638342 0.2105277658 -0.5560526802
0.0243103227 0.4261007342 -0.7716255780
0.0264035248 0.3902474717 -0.7357723272
0.0169290910 0.4136951948 -0.7592200426
0.0233894363 0.1544522658 -0.4999771986
0.0220898870 0.0571169412 -0.4026419058
0.0161660498 0.3725268818 -0.7180517431
0.0329380735 -0.0820493560 -0.2839692229
0.0429329832 0.0097090125 -0.3552339927
0.0450130819 0.0640311972 -0.4095561595
0.0459222568 0.1529770062 -0.4985019394
0.0452096438 0.2388635039 -0.5843884090
0.0387753772 0.3955574284 -0.7410822822
0.0476495904 0.2417337568 -0.5872586609
0.0403627854 0.3111773626 -0.6567022440
0.0376055434 0.3558491547 -0.7013740215
0.0434557614 0.0918235198 -0.4373484730
0.0505958482 -0.0884402788 -0.2903601514
0.0628994219 0.1154697175 -0.4609946630
0.0594291174 -0.0555684804 -0.2899565211
0.0637869033 0.3099343368 -0.6554592186
0.0678042392 0.3593586275 -0.7048834931
0.0654641991 0.3038975911 -0.6494224749
0.0661407979 0.1882314751 -0.5337563968
0.0649104734 0.2517483774 -0.5972732783
0.0645583901 0.1534296808 -0.4989546139
0.0655091279 -0.0223617067 -0.3231632840
0.0847751735 0.1359273023 -0.4814522411
0.0824514347 0.1885836312 -0.5341085528
0.0828163896 0.2209165530 -0.5664414640
0.0908928185 0.2691752521 -0.6147001473
0.0899163370 0.3586950339 -0.7042198997
0.0910837497 0.3420717950 -0.6875966663
0.0831276954 0.3835536275 -0.7290784852
0.0843804152 0.2001971988 -0.5457221165
0.0868916675 -0.0191814345 -0.3263435551
0.0868554294 -0.0269569157 -0.3185680764
0.1053772356 0.0401961285 -0.3857210986
0.1050837794 0.1787333936 -0.5242583183
0.1027088154 0.2547152263 -0.6002401262
0.1061947026 0.3686549665 -0.7141798290
0.1077715609 0.2330444101 -0.5785693171
0.1046841968 0.4031979597 -0.7487228109
0.1071053163 0.2114906113 -0.5570155254
0.1116286524 -0.0142713541 -0.3312536339
0.1042548381 -0.0539797820 -0.2915452190
0.1045906388 0.0847612426 -0.4302861981
0.1333469023 -0.0126165890 -0.3329083985
0.1254187099 0.0027237778 -0.3482487603
0.1305145257 0.1341280085 -0.4796529479
0.1312907317 0.2580630936 -0.6035879924
0.1314234058 0.2436368113 -0.5891617148
0.1285009428 0.3574059157 -0.7029307820
0.1318747403 0.3093068128 -0.6548316948
0.1256868526 0.0046156413 -0.3501406231
0.1259548976 0.1705177629 -0.5160426904
0.1370809707 -0.0830305316 -0.2849503993
0.1463216253 0.1310080734 -0.4765330138
0.1459452028 0.2558953727 -0.6014202722
0.1554573146 0.3482792950 -0.6938041642
0.1491623703 0.2774565211 -0.6229814135
0.1505409737 0.2360359783 -0.5815608843
0.1531609241 0.3783692339 -0.7238940932
0.1513194950 0.4265227275 -0.7720475711
0.1458589049 0.1175169626 -0.4630419074
0.1501094884 0.1703417220 -0.5158666495
0.1598793781 -0.0787296680 -0.2806495319
0.1698331658 0.2804023323 -0.6259272238
0.1732287110 0.0396380879 -0.3851630582
0.1735023909 0.1972608351 -0.5427857538
0.1755167764 0.2516517656 -0.5971766665
0.1777417677 0.4246566411 -0.7701814853
0.1760744620 0.1882973202 -0.5338222418
0.1741620064 0.1119408076 -0.4574657542
0.1718582678 -0.0369079584 -0.3086170370
0.1754586634 -0.0554764812 -0.2900485203
0.1813908026 -0.0805460198 -0.2824658854
0.1899513805 -0.0644387594 -0.2810862450
0.1910612640 0.2677552362 -0.6132801319
0.1973775096 0.3932718778 -0.7387967323
0.1954211968 0.1232759469 -0.4688008899
0.1950114012 0.3280756130 -0.6736004888
0.1947971212 0.2753971463 -0.6209220394
0.1910002655 0.3563212101 -0.7018460768
0.1946616637 0.1413809822 -0.4869059192
0.1988650959 -0.0459126966 -0.2996123018
0.2143152050 0.1517307666 -0.4972557003
0.2191052236 -0.0468105173 -0.2987144814
0.2174570574 -0.0233328447 -0.3221921462
0.2143319564 0.3900020868 -0.7355269424
0.2185841171 0.1990360042 -0.5445609223
0.2173753923 0.2421480775 -0.5876729815
0.2143963821 0.3837401608 -0.7292650184
0.2156707849 0.1525666899 -0.4980916232
0.2129971354 0.1166637333 -0.4621886784
0.2146029572 0.1458115966 -0.4913365322
0.2433758379 0.0843612414 -0.4298861616
0.2578488949 0.2920912401 -0.6376160499
0.2644622777 0.0200515756 -0.3655763349
0.2628500440 0.2253682677 -0.5708930393
0.2644683226 0.0714794625 -0.4170042218
0.2500858806 0.0844387105 -0.4299635796
0.2594152829 0.0848789907 -0.4304037886
0.2527165935 0.1752385706 -0.5207634195
0.2503682738 0.3298451303 -0.6753699603
0.2601227512 0.4177181025 -0.7632428797
0.2579587295 0.4245144507 -0.7700392310
0.2392514229 0.3986562461 -0.7441810811
0.2560185408 0.4183788229 -0.7639036100
0.2392422964 0.3798903619 -0.7254152030
0.2365399060 0.4195867654 -0.7651116001
0.2446495683 0.2140621779 -0.5595870600
0.2401465666 0.1118282237 -0.4573531504
0.2449553335 0.2504802020 -0.5960050714
0.2572283158 0.3326588537 -0.6781836659
0.2345714861 0.2989506712 -0.6444755503
0.2325712517 0.3268790197 -0.6724038946
0.2455184398 0.3469828587 -0.6925076951
0.2404580780 0.0183052050 -0.3638301475
0.2615931786 0.0880576328 -0.4335824141
0.2617762232 0.2784772107 -0.6240019905
0.2605182730 -0.0041379170 -0.3413868724
0.2576158991 0.0545684984 -0.4000933100
0.2625593166 0.1688869608 -0.5144117346
0.2580267149 -0.0483584737 -0.2971663348
0.2240131150 -0.0796865558 -0.2660665234
0.2176222443 -0.0775205377 -0.1913828856
0.2109462739 -0.0578418753 0.5695228457
0.2118470233 -0.0664738346 0.2357548704
0.2125162688 -0.0730785058 -0.0196248967
0.2217198792 -0.0728960037 -0.0125681719
0.2175718403 -0.0533155264 0.7445410822
0.2223270492 -0.0607373614 0.4575644233
0.2198159867 -0.0650984065 0.2889379104
0.2185585521 -0.0591468079 0.5190656209
0.2200605397 -0.0607361456 0.4576114334
0.2151546426 -0.0540873922 0.7146957059
0.2132364796 -0.0513762212 0.8195273019
0.2156047192 -0.0518441979 0.8014322613
0.2165628335 -0.0552034955 0.6715398565
0.2161193219 -0.0772220673 -0.1798420706
0.2110708897 -0.0675677932 0.1934552772
0.2214714314 -0.0770278646 -0.1723329262
0.2145348104 -0.0665639944 0.2322687013
0.2066666401 -0.0824206489 -0.2659958213
0.1898043180 -0.0709077581 0.0643104000
0.1906470795 -0.0538448949 0.7240722373
0.1896043373 -0.0694212290 0.1217893326
0.1910328578 -0.0760957839 -0.1362925911
0.1909910363 -0.0500729317 0.8699209933
0.1956685355 -0.0509410422 0.8363541653
0.1988818896 -0.0558325133 0.6472179169
0.1992253834 -0.0521018335 0.7914703872
0.1987677568 -0.0715436370 0.0397231647
0.1903322592 -0.0506696165 0.8468492572
0.1957367240 -0.0655771382 0.2704270163
0.1977883721 -0.0579698501 0.5645745039
0.1937048946 -0.0778784051 -0.2052203788
0.1949074248 -0.0690051892 0.1378761513
0.1914199003 -0.0598026216 0.4937075768
0.1964903826 -0.0716868225 0.0341866792
0.1690652608 -0.0672579778 0.2054347684
0.1692911099 -0.0569427911 0.6042873186
0.1675246164 -0.0519059624 0.7990440444
0.1676479168 -0.0778838409 -0.2054305621
0.1740336399 -0.0595296562 0.5042622045
0.1707164358 -0.0583719603 0.5490262940
0.1758653529 -0.0666247658 0.2299188837
0.1754019902 -0.0699998073 0.0994177163
0.1760396624 -0.0686487146 0.1516597894
0.1729022659 -0.0525760862 0.7731326758
0.1755901808 -0.0659285066 0.2568408160
0.1748888879 -0.0515991518 0.8109073481
0.1674193094 -0.0661373825 0.2487643061
0.1736825808 -0.0758173370 -0.1255260124
0.1690289451 -0.0712362690 0.0516080227
0.1731993811 -0.0693541425 0.1243833388
0.1660443895 -0.1003583568 -0.2655319074
0.1492648307 -0.0792795623 -0.2593982766
0.1507569771 -0.0692106114 0.1299331881
0.1482356863 -0.0634692748 0.3519307935
0.1503231774 -0.0793503474 -0.2621352933
0.1540392700 -0.0607761534 0.4560644735
0.1557006754 -0.0603100561 0.4740868396
0.1542634168 -0.0598880196 0.4904055313
0.1497842812 -0.0565957499 0.6177061990
0.1493634640 -0.0526442014 0.7704988979
0.1552378740 -0.0762344845 -0.1416556644
0.1471031085 -0.0492870564 0.9003080689
0.1500490002 -0.0592430802 0.5153431029
0.1469173891 -0.0554037389 0.6637971391
0.1494436305 -0.0709024102 0.0645171854
0.1537365837 -0.0793818112 -0.2633518871
0.1531767823 -0.0777916768 -0.2018668957
0.1263199381 -0.0552277388 0.6706024531
0.1283818824 -0.0709654641 0.0620791117
0.1241073799 -0.0524304616 0.7787634748
0.1295942353 -0.0673609141 0.2014545755
0.1314808875 -0.0480404848 0.9485086753
0.1294853752 -0.0482514572 0.9403511043
0.1337503959 -0.0560400357 0.6391937447
0.1303246818 -0.0642523222 0.3216530617
0.1318712354 -0.0683490795 0.1632456443
0.1322254065 -0.0606396289 0.4613434001
0.1335976960 -0.0673433732 0.2021328242
0.1334365843 -0.0724479602 0.0047561213
0.1329801668 -0.0756191279 -0.1178619553
0.1277105058 -0.0744017875 -0.0707916151
0.1264986878 -0.0740672914 -0.0578578125
0.1293894449 -0.0718595293 0.0275087048
0.1198647021 -0.0949254024 -0.2656724149
0.1055885545 -0.0713872403 0.0457704832
0.1108178612 -0.0774470589 -0.1885417172
0.1061387590 -0.0631525396 0.3641778449
0.1029466084 -0.0690981517 0.1342816144
0.1076895482 -0.0605908363 0.4632300435
0.1123226494 -0.0653769253 0.2781685524
0.1123376059 -0.0762808942 -0.1434501660
0.1087379393 -0.0657756805 0.2627500702
0.1112852943 -0.0480030224 0.9499572171
0.1111606725 -0.0532463550 0.7472157042
0.1078152626 -0.0481601274 0.9438825131
0.1054247620 -0.0502415802 0.8633999383
0.1058755142 -0.0744531373 -0.0727771342
0.1039820299 -0.0764715031 -0.1508203503
0.1076863997 -0.0768171883 -0.1641868006
0.1033258868 -0.0633235912 0.3575638719
0.0820952296 -0.0682472324 0.1671837160
0.0833048234 -0.0570711117 0.5993256040
0.0821147146 -0.0736509214 -0.0417582242
0.0838352154 -0.0727479995 -0.0068453628
0.0888914040 -0.0619670156 0.4100179546
0.0868275010 -0.0564269434 0.6242333608
0.0885826794 -0.0627233536 0.3807729818
0.0867668376 -0.0575574985 0.5805187105
0.0892271716 -0.0496786558 0.8851662779
0.0888798934 -0.0539914748 0.7184045010
0.0875051199 -0.0616664538 0.4216396391
0.0857481573 -0.0535476922 0.7355640382
0.0855066047 -0.0735422158 -0.0375549559
0.0831277888 -0.0742422660 -0.0646234732
0.0814931701 -0.0625643555 0.3869208872
0.0827636835 -0.0705449046 0.0783406914
0.0799031204 -0.0969949647 -0.2656188917
0.0670852091 -0.0767480089 -0.1615118731
0.0619257490 -0.0590263305 0.5237240655
0.0664887451 -0.0784913258 -0.2289199018
0.0607500318 -0.0576382701 0.5773955542
0.0676456253 -0.0530896404 0.7532753147
0.0636636866 -0.0498632852 0.8780272978
0.0671135884 -0.0484154420 0.9340103793
0.0691623828 -0.0562963425 0.6292832457
0.0624220789 -0.0524347539 0.7785975059
0.0629339027 -0.0551132272 0.6750302196
0.0682893284 -0.0481408857 0.9446265222
0.0620879081 -0.0571630345 0.5957712706
0.0608393553 -0.0660635483 0.2516192187
0.0634896479 -0.0729319805 -0.0139592692
0.0611918134 -0.0604257213 0.4696144687
0.0595625985 -0.0792996469 -0.2601748804
0.0418021453 -0.0783519441 -0.2235304939
0.0458504366 -0.0793532336 -0.2622468900
0.0399334242 -0.0722552515 0.0122074961
0.0468656085 -0.0765632731 -0.1543687817
0.0444095871 -0.0581602276 0.5572132631
0.0463123377 -0.0512768685 0.8233689249
0.0458321720 -0.0510556012 0.8319245676
0.0455567274 -0.0616660987 0.4216533693
0.0468986758 -0.0725482618 0.0008778036
0.0408197033 -0.0574945025 0.5829545483
0.0477576264 -0.0534158942 0.7406602082
0.0473669438 -0.0522835086 0.7844456380
0.0389633935 -0.0583007874 0.5517783024
0.0401352124 -0.0786539671 -0.2352086762
0.0404982282 -0.0701760729 0.0926021349
0.0405810442 -0.0714575755 0.0430508666
0.0358257184 -0.0815693454 -0.2660178305
0.0209365204 -0.0685457545 0.1556409005
0.0236465734 -0.0720244982 0.0211299281
0.0161847083 -0.0656483239 0.2676745109
0.0189307090 -0.0737387419 -0.0451539398
0.0235758729 -0.0617271120 0.4192941967
0.0257686168 -0.0565554994 0.6192625470
0.0234909705 -0.0621272939 0.4038205464
0.0200503185 -0.0604442923 0.4688963923
0.0262637334 -0.0577060353 0.5747753073
0.0242389591 -0.0646152037 0.3076216916
0.0228180494 -0.0575886155 0.5793155265
0.0238035284 -0.0496314151 0.8869929093
0.0185271802 -0.0642326492 0.3224137471
0.0167721382 -0.0537549435 0.7275503474
0.0203256218 -0.0667833976 0.2237851398
0.0184555088 -0.0741703231 -0.0618416890
0.0030627434 -0.0778425823 -0.2038352352
0.0045830492 -0.0791686138 -0.2551082826
-0.0033373602 -0.0659160932 0.2573208000
-0.0027724060 -0.0585630287 0.5416383391
0.0012252017 -0.0597664637 0.4951056752
0.0036424621 -0.0668497495 0.2212195408
-0.0014275717 -0.0565672085 0.6188097961
0.0035536776 -0.0748687170 -0.0888461618
0.0004010216 -0.0560166140 0.6400993793
0.0015320142 -0.0623674375 0.3945350280
0.0015422431 -0.0589682715 0.5259690041
-0.0028945823 -0.0496544231 0.8861032701
-0.0024320413 -0.0674730776 0.1971176044
-0.0018023331 -0.0634032174 0.3544850031
-0.0007675396 -0.0689210174 0.1411307830
-0.0054241148 -0.0638551142 0.3370117212
-0.0115341094 -0.0944602498 -0.2656844447
-0.0267319256 -0.0668902135 0.2196549395
-0.0250398838 -0.0557400529 0.6507930382
-0.0240121694 -0.0710386827 0.0592479993
-0.0220945712 -0.0743638577 -0.0693250030
-0.0176309124 -0.0721349046 0.0168608957
-0.0194922358 -0.0668721342 0.2203540038
-0.0192285148 -0.0536356276 0.7321638809
-0.0255144323 -0.0529381789 0.7591318070
-0.0239581574 -0.0496804780 0.8850958166
-0.0181706790 -0.0559418089 0.6429918327
-0.0266894850 -0.0505891125 0.8499620670
-0.0168039289 -0.0515455235 0.8129809688
-0.0252013491 -0.0594041749 0.5091141297
-0.0275931027 -0.0490833820 0.9081834518
-0.0254733744 -0.0722490093 0.0124488613
-0.0269142199 -0.0752507675 -0.1036187341
-0.0475611885 -0.0721387491 0.0167122410
-0.0455854527 -0.0598723579 0.4910111150
-0.0466991681 -0.0663037674 0.2423307790
-0.0417290870 -0.0777730588 -0.2011470025
-0.0398873551 -0.0493603885 0.8974725697
-0.0475031371 -0.0515014657 0.8146845296
-0.0420716416 -0.0553836154 0.6645752449
-0.0402251308 -0.0538564159 0.7236267601
-0.0419828640 -0.0668265537 0.2221164441
-0.0388697489 -0.0549582681 0.6810219514
-0.0433517438 -0.0506632198 0.8470965942
-0.0432083260 -0.0571064338 0.5979598201
-0.0449192512 -0.0630769525 0.3671005366
-0.0412098901 -0.0760450784 -0.1343319864
-0.0408917347 -0.0761637661 -0.1389212267
-0.0472127931 -0.0685674649 0.1548014342
-0.0558049713 -0.0917859354 -0.2657536081
-0.0678198726 -0.0711911403 0.0533529925
-0.0679426347 -0.0679821279 0.1774343888
-0.0701738127 -0.0727051744 -0.0051894637
-0.0686821023 -0.0547622608 0.6886008729
-0.0611500101 -0.0580752696 0.5604982950
-0.0609199117 -0.0482280724 0.9412553155
-0.0674038638 -0.0488461682 0.9173556902
-0.0630906510 -0.0649024964 0.2965130781
-0.0675977275 -0.0544396842 0.7010737951
-0.0630369741 -0.0480792958 0.9470079895
-0.0651140678 -0.0599549157 0.4878188915
-0.0669184333 -0.0556188685 0.6554788215
-0.0689007968 -0.0557030302 0.6522245804
-0.0617187731 -0.0785531027 -0.2313086019
-0.0665124726 -0.0644672335 0.3133431877
-0.0688302518 -0.0573225507 0.5896033292
-0.0901685971 -0.0760854741 -0.1358939484
-0.0859477706 -0.0742007719 -0.0630190394
-0.0880121953 -0.0753080744 -0.1058345919
-0.0912103658 -0.0723933928 0.0068660531
-0.0822891672 -0.0523603588 0.7814741077
-0.0893481055 -0.0557759700 0.6494042486
-0.0887650686 -0.0556661511 0.6536505681
-0.0840430489 -0.0486481539 0.9250122153
-0.0904971062 -0.0498419416 0.8788525810
-0.0875161738 -0.0618782091 0.4134517925
-0.0900076881 -0.0506998292 0.8456810386
-0.0869294290 -0.0632774311 0.3593487252
-0.0923370128 -0.0656520027 0.2675322643
-0.0898113235 -0.0668930423 0.2195455588
-0.0900731756 -0.0673160670 0.2031886593
-0.0864735520 -0.0681785554 0.1698392201
-0.0944086028 -0.1014743249 -0.2655030461
-0.1077121060 -0.0679696432 0.1779171324
-0.1073916833 -0.0681604399 0.1705396849
-0.1129445509 -0.0673674810 0.2012006594
-0.1101230419 -0.0630128779 0.3695780826
-0.1081894212 -0.0547241689 0.6900737563
-0.1037607756 -0.0718150019 0.0292304243
-0.1064619943 -0.0691891147 0.1307643914
-0.1119126197 -0.0519992316 0.7954376473
-0.1108639842 -0.0505353311 0.8520416082
-0.1069898877 -0.0669505987 0.2173200533
-0.1125244931 -0.0488028399 0.9190310461
-0.1075204467 -0.0548216646 0.6863039337
-0.1088364835 -0.0777586613 -0.2005903023
-0.1053932224 -0.0788033018 -0.2409829337
-0.1107958312 -0.0717056908 0.0334571075
-0.1113144712 -0.0630631723 0.3676333695
-0.1316482017 -0.0736717876 -0.0425650490
-0.1313601660 -0.0708132990 0.0679628088
-0.1338066981 -0.0773686089 -0.1855083257
-0.1284624361 -0.0751954018 -0.1014779337
-0.1256763307 -0.0740748189 -0.0581488737
-0.1259151239 -0.0685826738 0.1542133592
-0.1264003270 -0.0605875608 0.4633566932
-0.1258761988 -0.0762272224 -0.1413748633
-0.1296341734 -0.0502925438 0.8614293537
-0.1275809923 -0.0632048058 0.3621568947
-0.1283823872 -0.0595877014 0.5020177974
-0.1264132132 -0.0579505125 0.5653222221
-0.1339779566 -0.0645390260 0.3105672169
-0.1338330527 -0.0727550537 -0.0071181217
-0.1301974442 -0.0723293892 0.0093408492
-0.1341327214 -0.0636429721 0.3452145215
-0.1417063096 -0.0837174080 -0.2659622771
-0.1522126910 -0.0766255290 -0.1567759987
-0.1546469616 -0.0700048113 0.0992242261
-0.1551443866 -0.0755489142 -0.1151470323
-0.1532618488 -0.0758647703 -0.1273600951
-0.1492038748 -0.0701876396 0.0921548909
-0.1508902306 -0.0531876113 0.7494871198
-0.1539239370 -0.0547617283 0.6886214638
-0.1507990963 -0.0583329092 0.5505362654
-0.1483840677 -0.0695633632 0.1162934965
-0.1509822706 -0.0606410648 0.4612878809
-0.1486614084 -0.0649731683 0.2937804408
-0.1547302707 -0.0553892108 0.6643588888
-0.1531277424 -0.0670290755 0.2142856255
-0.1533570453 -0.0737310519 -0.0448565947
-0.1542395375 -0.0739232369 -0.0522877223
-0.1554068924 -0.0575081593 0.5824264861
-0.1788381211 -0.0619836714 0.4093739337
-0.1779740628 -0.0751217974 -0.0986319079
-0.1698513513 -0.0788724068 -0.2436549834
-0.1779863627 -0.0548089770 0.6867945193
-0.1714104742 -0.0556573260 0.6539918042
-0.1718845029 -0.0616081415 0.4238943739
-0.1708223228 -0.0523344159 0.7824772307
-0.1723030052 -0.0612843287 0.4364150912
-0.1714650885 -0.0660562835 0.2519001251
-0.1689099714 -0.0688234422 0.1449036801
-0.1733622494 -0.0630203444 0.3692893789
-0.1727215027 -0.0610453276 0.4456564394
-0.1788995582 -0.0590202893 0.5239576549
-0.1755852334 -0.0677331665 0.1870608647
-0.1746441550 -0.0680298291 0.1755899516
-0.1717822307 -0.0761708266 -0.1391942334
-0.1936665383 -0.0721347416 0.0168671981
-0.1970709449 -0.0605473158 0.4649128297
-0.1994631189 -0.0726639715 -0.0035962902
-0.1956707587 -0.0628206034 0.3770126688
-0.1934185229 -0.0543693302 0.7037941385
-0.1981891137 -0.0550803750 0.6763004989
-0.1935778960 -0.0589869145 0.5252481431
-0.1904557479 -0.0555641860 0.6575932029
-0.1942285013 -0.0659893031 0.2544900259
-0.1926182164 -0.0652127040 0.2845184214
-0.1940729928 -0.0663110848 0.2420478394
-0.1937866812 -0.0594155600 0.5086739078
-0.1980875606 -0.0607134058 0.4584907052
-0.1995057383 -0.0752472876 -0.1034841763
-0.1997021150 -0.0683238646 0.1642206161
-0.1966055574 -0.0716600800 0.0352207173
-0.2041248080 -0.0998222105 -0.2655457732
-0.2219190986 -0.0759849215 -0.1320059252
-0.2196031833 -0.0734920587 -0.0356155553
-0.2176997282 -0.0616319474 0.4229738798
-0.2177501060 -0.0642136949 0.3231466444
-0.2123428388 -0.0677976964 0.1845657162
-0.2140758466 -0.0570670921 0.5994810305
-0.2123571290 -0.0685185700 0.1566920324
-0.2194311311 -0.0549355706 0.6818995847
-0.2133516500 -0.0480923767 0.9465021970
-0.2125009728 -0.0610975986 0.4436352988
-0.2119894696 -0.0707448475 0.0706095886
-0.2192355867 -0.0554740802 0.6610772836
-0.2208301084 -0.0724291986 0.0054815667
-0.2163538024 -0.0744392375 -0.0722396798
-0.2219074810 -0.0739261258 -0.0523994256
-0.2160881885 -0.0743723344 -0.0696527682
-0.1639920319 -0.0750360360 0.9512757252
0.0959871950 0.4403016158 -0.7859709339
0.2089531142 0.4416786604 -0.7877655652
-0.1134697799 0.4392124985 -0.7847372643
0.0029626820 0.4366279939 -0.7821527876
0.0939153537 0.4359049527 -0.7814297543
0.2005566790 0.4339559160 -0.7794807385
0.0661070759 0.4360952305 -0.7816200300
0.2049288308 0.4395489741 -0.7850737363
-0.2331665365 -0.0344236228 -0.3267125324
-0.2331665365 0.3606710695 -0.7100571770
-0.2331665365 -0.0296622320 -0.3451085855
-0.2331665365 0.3842688333 -0.7304244705
-0.2331665365 -0.0889757939 -0.3019226938
-0.2331665365 -0.0729326212 -0.2827571408
-0.2331665365 0.2329960551 -0.5949293364
-0.2331665365 0.0041596450 -0.3568477503
-0.2331665365 0.1995682315 -0.5710517782
-0.2331665365 -0.0372063267 -0.3533611494
-0.2331665365 0.0386268338 -0.4201092191
-0.2331665365 0.2826158955 -0.6590122322
-0.2331665365 0.3187700368 -0.6954288335
-0.2331665365 0.2987634298 -0.6690402017
-0.2331665365 0.3690943946 -0.7407402802
-0.2331665365 0.4017905338 -0.7867201706
-0.2331665365 0.2835612689 -0.6671452057
-0.2331665365 0.3524696966 -0.7270752316
-0.2331665365 0.0896738075 -0.4758594839
-0.2331665365 0.1706401774 -0.5531270358
-0.2331665365 0.1646382457 -0.5456890310
-0.2331665365 0.3125218404 -0.6712864985
-0.2331665365 0.2521599761 -0.5987110105
-0.2331665365 0.0889674032 -0.4622394412
-0.2331665365 -0.0443861489 -0.3177836188
-0.2331665365 0.1716413496 -0.5363958508
-0.2331665365 0.0632965907 -0.4386022309
-0.2331665365 0.0827754569 -0.4495797545
-0.2331665365 -0.0682137431 -0.3071925009
0.2420772536 -0.0655570655 0.2712031574
0.2336534448 -0.0724796799 0.0035296270
0.2556941586 -0.0721434049 0.0165322203
0.2380332710 -0.0637094157 0.3426453768
0.2549953958 -0.0713704880 0.0464182389
0.2354522026 -0.0596077788 0.5012414725
0.2440207715 -0.0744475167 -0.0725598079
0.2395780394 -0.0677069174 0.1880758290
0.2343818636 -0.0786870878 -0.2364893389
0.2551078564 -0.0746496697 -0.0803763640
0.2395209887 -0.0710912014 0.0572172834
0.2510829545 -0.0692071085 0.1300686335
-0.2606895710 -0.0780454256 -0.2116783069
-0.2598134737 -0.0757603935 -0.1233237375
-0.2562850104 -0.0607103089 0.4586128191
-0.2582751567 -0.0599810778 0.4868097548
-0.2354932199 -0.0772197142 -0.1797508004
-0.2542602539 -0.0712920056 0.0494539142
-0.2474156979 -0.0751419954 -0.0994123498
-0.2541171029 -0.0684937367 0.1576536331
-0.2616400003 -0.0775178725 -0.1912795890
-0.2393839575 -0.0739055275 -0.0516022615
-0.2510219331 -0.0624945550 0.3896219773
-0.2514434455 -0.0757035770 -0.1211268331
-0.2393165343 -0.0723554622 0.0083334747
-0.2497109887 -0.0516076785 0.8105797389
-0.2390621154 -0.0686284915 0.1524424923
-0.2361738309 -0.0515995256 0.8108932720
-0.2367359423 -0.0532622112 0.7466030499
-0.2552558704 -0.0534433140 0.7396027734
-0.2426135655 -0.0653841259 0.2778913256
-0.2481209765 -0.0554558489 0.6617841162
-0.2351276527 -0.0483277164 0.9374026726
-0.2378662058 -0.0673825642 0.2006180385
-0.2335966765 -0.0744876837 -0.0741128715
-0.2365462140 -0.0581984391 0.5557361834
-0.2171363550 -0.0475040903 0.9692511969
-0.2007446270 -0.0475583369 0.9671534436
-0.2087968038 -0.0473994403 0.9732980843
-0.2477553896 -0.0473599147 0.9748265644
-0.1474548826 -0.0475824268 0.9662218692
-0.1052030725 -0.0470052847 0.9885403500
-0.0642233949 -0.0476649030 0.9630324602
0.1674469970 -0.0472322500 0.9797634474
0.1266316532 -0.0474314407 0.9720606039
0.1736583307 -0.0473870279 0.9737780795
0.1781768155 -0.0475836299 0.9661753442
0.2061170090 -0.0479327027 0.9526764606
0.2360977692 -0.0483099285 0.9380904809
0.2614119214 -0.0658220596 0.2609580764
0.2538530449 -0.0481678879 0.9435850162
0.2530391493 -0.0557622460 0.6499364212
0.2644029349 -0.0717690087 0.0310097842
0.2453029447 -0.0522056921 0.7874554946
0.2388878973 -0.0512079688 0.8260332921
0.2419998120 -0.0543791897 0.7034131646
0.2544909091 -0.0573525126 0.5884463059
0.2543215252 -0.0654903868 0.2737818392
0.2617426352 -0.0609952953 0.4475929936
0.2637258147 -0.0701768606 0.0925727522
0.2544213123 -0.0558169936 0.6478196947
0.2391911712 -0.0518321537 0.8018981839
0.2467578905 -0.0527847298 0.7650662260
0.2569316572 -0.0481658848 0.9436628693
0.2571614256 -0.0543789624 0.7034239185
0.2599449931 -0.0637205082 0.3422178679
0.2562455299 -0.0654077554 0.2769771710
0.2556293602 -0.0487985775 0.9191985839
0.2527152293 -0.0491820832 0.9043693201
0.2547903457 -0.0627333856 0.3803859396
0.2522860778 -0.0506599280 0.8472259378
0.2235220487 -0.0478390313 0.9562987988
0.2373547024 -0.0472140976 0.9804654124
0.0576916917 -0.0479630278 0.9515037686
0.0133532353 -0.0478183608 0.9570981412
-0.0614637391 -0.0478412657 0.9562123920
-0.1367149672 -0.0478465733 0.9560071445
-0.0271729786 -0.0473838787 0.9738998623
-0.1002114984 -0.0471939465 0.9812446680
0.1380108505 -0.0471170870 0.9842168783
-0.2101332295 -0.0478858093 0.9544898617
-0.1555391900 -0.0474675293 0.9706650362
0.1256589265 -0.0469977547 0.9888315398
-0.2597711830 -0.0514271618 0.8175609658
-0.2392232782 -0.0607109286 0.4585872561
-0.2405856040 -0.0630845168 0.3668089894
-0.2570044961 -0.0491069447 0.9072753768
-0.2438623363 -0.0658040104 0.2616560030
-0.2332395618 -0.0576618030 0.5764856271
-0.2550623259 -0.0525307561 0.7748882004
-0.2456933098 -0.0633710091 0.3557319720
-0.2389855910 -0.0503667302 0.8585615568
-0.2565135574 -0.0480011035 0.9500343649
-0.2363384563 -0.0611645623 0.4410464467
-0.2409626170 -0.0503539809 0.8590547799
-0.2643473113 -0.0739012015 -0.0514349858
-0.2605652376 -0.0674303509 0.1987712177
-0.2546715533 -0.0669088891 0.2189344048
-0.2369445787 -0.0768417983 -0.1651380560
-0.2636700308 -0.0499279406 0.8755310279
-0.2623367618 -0.0605670239 0.4641531710
-0.2650159081 -0.0553383821 0.6663273066
-0.2580115835 -0.0736557123 -0.0419427389
-0.2577743779 -0.0552372851 0.6702363904
-0.2549427533 -0.0578723882 0.5683457438
-0.2617796978 -0.0582004734 0.5556597853
-0.2574426032 -0.0638602145 0.3368164777
0.2339683185 -0.0631919868 0.3626525599
0.2493311835 -0.0651428723 0.2872185720
0.2425361410 -0.0599725127 0.4871384767
0.2488425851 -0.0718656106 0.0272735636
0.2401293743 -0.0700891897 0.0959616087
0.2362440932 -0.0723936671 0.0068554442
0.2493004942 -0.0708133591 0.0679604854
0.2510896013 -0.0703674285 0.0852030768
0.2542858659 -0.0780785912 -0.2129608843
0.2435462213 -0.0691251722 0.1332368266
0.2425336392 -0.0634510565 0.3526352327
0.2333790651 -0.0733055895 -0.0284054362
0.2576675529 -0.0791486035 -0.2543345545
-0.2656213546 -0.0641899402 0.7441513294
-0.2656213546 -0.0832033436 0.6399802810
-0.2656213546 -0.0592072183 0.9246311016
-0.2656213546 -0.0729368345 0.7266322793
-0.2656213546 -0.0549860647 0.9809253424
-0.2656213546 -0.0935736595 0.1171088789
-0.2656213546 -0.0655323581 0.7666895711
-0.2656213546 -0.0810467232 0.4199449502
-0.2656213546 -0.0897234640 0.4196337585
-0.2656213546 -0.0731193642 0.6365983015
-0.2656213546 -0.0860182553 0.5720125675
-0.2656213546 -0.0675106805 0.8183466997
-0.2656213546 -0.0875615931 -0.1041178346
-0.2656213546 -0.0761796417 0.1155455071
-0.2656213546 -0.0979929515 -0.1981552456
-0.2656213546 -0.0628113823 0.6251535121
-0.2656213546 -0.0745473564 0.4132064151
-0.2656213546 -0.0743525733 0.3680598514
-0.2656213546 -0.0868184250 -0.2216848741
-0.2656213546 -0.0890078544 -0.2340494973
-0.2656213546 -0.0813775647 0.1465942701
-0.2656213546 -0.1047626745 -0.1682875298
-0.2656213546 -0.0723022931 0.3093939398
-0.2656213546 -0.0769254744 -0.0275172790
-0.2656213546 -0.0621000606 0.4958341180
-0.2656213546 0.2767655795 -0.6296137430
-0.2656213546 -0.0640314624 -0.2856910024
-0.2656213546 0.3454261962 -0.6955755162
-0.2656213546 -0.0153008847 -0.3598945005
-0.2656213546 -0.0273244565 -0.3514769016
-0.2656213546 0.1447599820 -0.4943133484
-0.2656213546 0.2964896386 -0.6448858199
-0.2656213546 0.3532070801 -0.7227597061
-0.2656213546 0.1026888299 -0.4843842373
-0.2656213546 0.2600991509 -0.6303079550
-0.2656213546 0.1748218907 -0.5640059241
-0.2656213546 0.2806501743 -0.6600838593
-0.2656213546 -0.0331232152 -0.3560468252
-0.2656213546 0.1138012137 -0.4899301876
-0.2656213546 0.4352618544 -0.8025792142
-0.2656213546 0.4303043549 -0.7944258335
-0.2656213546 0.2571884930 -0.6485160951
-0.2656213546 0.2329947008 -0.6181923227
-0.2656213546 -0.0149789074 -0.3725528304
-0.2656213546 0.0381471042 -0.4244500590
-0.2656213546 0.3689878829 -0.7407330821
-0.2656213546 0.2889117319 -0.6693354857
-0.2656213546 0.0167867809 -0.3664328788
-0.2656213546 0.0179288633 -0.3667138812
-0.2656213546 -0.0495508623 -0.3345911681
-0.2656213546 0.3394375693 -0.6925020105
-0.2656213546 0.3552288606 -0.7009544849
-0.2656213546 -0.0019971187 -0.3606384004
-0.2656213546 0.0289780617 -0.4003842854
-0.2656213546 0.3086785497 -0.6552839954
-0.2656213546 -0.0862595477 -0.0774498752
-0.2656213546 -0.0711530997 0.3260677415
-0.2656213546 -0.0718167325 0.2398086184
-0.2656213546 -0.0627991624 0.6414676065
-0.2656213546 -0.1016562772 -0.1131120691
-0.2656213546 -0.0800226143 0.0031216798
-0.2656213546 -0.0773739045 -0.1611700563
-0.2656213546 -0.1018434049 -0.1048700037
-0.2656213546 -0.0808140876 0.2971660656
-0.2656213546 -0.0755869175 -0.0410737465
-0.2656213546 -0.0625230229 0.6230529924
-0.2656213546 -0.0746191190 0.1376290180
-0.2656213546 -0.0576059712 0.7962826574
-0.2656213546 -0.0724853996 0.6244915460
-0.2656213546 -0.0583989386 0.8021085255
-0.2656213546 -0.0655728934 0.7128722617
-0.2656213546 -0.0726510337 0.6769548269
-0.2656213546 -0.0989923648 0.1267981719
-0.2656213546 -0.0580243412 0.8689737584
-0.2656213546 -0.0723374931 0.6019987590
-0.2656213546 -0.0716766454 0.8584383100
-0.2656213546 -0.0642339490 0.9049014940
-0.2656213546 -0.0950250839 0.1715461876
-0.2656213546 -0.0672757321 0.9360696851
-0.2656213546 -0.0674059846 0.7210252594
-0.2223482638 0.3107097014 -0.6592913117
-0.2223482638 0.2636340436 -0.6231852774
-0.2223482638 0.0399748912 -0.3881152139
-0.2223482638 0.0315891851 -0.4109721790
-0.2223482638 -0.0372328102 -0.3290951940
-0.2223482638 0.0040442465 -0.3714558146
-0.2223482638 -0.0571247629 -0.3152494281
-0.2223482638 0.0524645387 -0.4420400949
-0.2223482638 0.0389455793 -0.4206510913
-0.2223482638 0.3384946570 -0.6984009957
-0.2223482638 0.2897013565 -0.6755882229
-0.2223482638 0.2703726526 -0.6549703579
-0.2223482638 0.2910563606 -0.6727146202
-0.2223482638 0.3751761765 -0.7549108687
-0.2223482638 0.3172543009 -0.7056712368
-0.2223482638 0.3372388641 -0.7271799586
-0.2223482638 0.2454236153 -0.6228249300
-0.2223482638 0.3544043899 -0.7074961178
-0.2223482638 0.3251654090 -0.6837945909
-0.2223482638 0.3784419596 -0.7315959345
-0.2223482638 0.0703206797 -0.4571425445
-0.2223482638 0.0011062222 -0.3486203005
-0.2223482638 0.0732589182 -0.4188233922
-0.2223482638 0.0352855761 -0.3857782059
-0.2223482638 0.1142885459 -0.4637935257
-0.2223482638 -0.0322263941 -0.3522929760
-0.2223482638 0.2124778777 -0.5639181527
-0.2223482638 0.1717271337 -0.5324818018
-0.2115299911 0.0894596408 -0.4479677893
-0.2115299911 0.3603936534 -0.7069127046
-0.2115299911 0.2519116260 -0.6096134963
-0.2115299911 0.3258243111 -0.6724313109
-0.2115299911 0.3466016131 -0.6947482229
-0.2115299911 0.1036875274 -0.4591087763
-0.2115299911 0.2242663717 -0.5753361837
-0.2115299911 0.0161644049 -0.3990313218
-0.2115299911 0.3849585540 -0.7661284407
-0.2115299911 0.3778756877 -0.7348980742
-0.2115299911 0.3830375512 -0.7701787172
