0.152492 -0.327646 0.183666 
0.258659 -0.036051 0.078904 
0.240170 -0.353847 0.074252 
-0.011804 -0.082547 0.233385 
-0.101417 0.315760 0.014314 
0.332004 -0.161560 0.280441 
-0.116447 -0.274056 0.117091 
0.236778 -0.172559 -0.070893 
-0.044868 0.407381 -0.155325 
-0.120116 0.502293 -0.257200 
-0.083796 -0.203484 0.246792 
0.056011 0.140947 -0.102542 
-0.088118 -0.320436 0.060580 
0.000823 -0.056444 -0.194613 
-0.000946 0.337760 -0.025179 
0.044695 -0.046329 0.225818 
-0.061479 0.289293 0.033777 
0.029285 0.254136 0.061861 
-0.051242 -0.199630 0.284501 
0.164301 0.049321 -0.082098 
-0.300171 0.309003 -0.101025 
0.196886 -0.279988 0.248493 
-0.065365 0.479274 -0.162549 
0.104563 0.103106 0.156832 
0.034311 -0.114354 -0.180971 
0.114341 -0.267334 0.335686 
-0.002472 -0.146557 -0.170718 
0.054230 -0.227265 0.367770 
-0.084947 -0.124496 -0.157743 
0.128395 -0.096914 0.275617 
-0.102510 0.057407 0.159310 
0.255231 -0.092111 0.014750 
-0.216892 0.181481 -0.037414 
-0.292879 0.379707 -0.279961 
0.306089 -0.119549 0.106075 
0.033887 0.217334 -0.073825 
-0.206736 0.133287 0.044369 
-0.026124 -0.198043 0.309343 
-0.201737 0.004326 -0.075993 
-0.217709 0.122639 -0.274866 
0.282275 -0.307951 -0.008540 
-0.151291 0.511285 -0.223866 
0.019472 -0.355895 -0.078462 
0.087778 -0.168683 -0.166131 
0.228487 -0.296571 0.190344 
0.105265 0.047417 -0.168613 
0.134202 0.021554 -0.146406 
0.284984 -0.247961 -0.013799 
-0.226801 0.379667 -0.038471 
0.092480 0.003407 0.208855 
-0.118166 0.148948 0.107676 
0.242955 -0.351653 0.076686 
0.195686 -0.137743 -0.114150 
0.234432 0.047826 0.134172 
0.015083 -0.319136 0.322358 
-0.038127 0.290580 0.034184 
0.202021 0.109745 0.129973 
-0.152850 -0.155731 0.118042 
-0.008009 -0.125821 -0.177807 
0.034471 -0.073429 -0.193530 
-0.187165 0.343141 -0.309332 
0.039501 -0.243714 0.373517 
-0.214040 0.133580 -0.127903 
0.094880 -0.381420 0.138387 
-0.061566 -0.017378 -0.229579 
0.313627 -0.145677 0.097945 
-0.233716 0.051869 0.024502 
0.102503 -0.106654 0.280282 
-0.035484 -0.172067 -0.156635 
-0.265990 0.333630 -0.297156 
-0.324959 0.460716 -0.175483 
-0.196351 -0.004495 0.003865 
-0.131454 0.366696 -0.019992 
0.080757 -0.442497 0.008111 
-0.067072 -0.331797 0.220213 
-0.068326 -0.310259 -0.035762 
-0.170918 0.511203 -0.112079 
-0.015703 0.410024 -0.106426 
0.215829 -0.265268 0.256900 
0.010673 -0.382263 -0.049826 
0.000107 -0.009655 -0.205424 
-0.038594 -0.068995 0.227684 
-0.160100 0.113373 -0.326425 
-0.013817 0.422445 -0.051496 
0.037524 -0.303310 -0.124459 
0.013652 -0.368469 -0.065902 
0.164096 -0.070427 -0.134751 
0.113069 -0.340527 0.198464 
-0.215363 0.022609 -0.027582 
-0.293018 0.362631 -0.039602 
0.174213 -0.155066 -0.131721 
-0.182045 0.200482 -0.293761 
-0.111083 0.221632 0.067093 
0.160599 -0.406786 0.049447 
0.286456 -0.106594 0.054843 
0.012784 0.261603 -0.164781 
0.093407 -0.282904 0.313619 
-0.189242 0.444539 -0.071038 
-0.322616 0.401934 -0.227494 
0.187298 -0.245653 -0.121971 
0.105827 -0.301481 -0.112677 
0.193241 -0.181430 -0.120864 
0.315526 -0.313394 0.055248 
-0.086033 0.363074 -0.013768 
0.170620 -0.365706 0.110137 
0.319251 -0.141313 0.262332 
-0.196300 0.346639 -0.318290 
-0.181766 0.081582 0.135255 
-0.104312 -0.238136 -0.009485 
0.015952 -0.312862 -0.113552 
0.321908 -0.150928 0.131779 
-0.006180 -0.356359 -0.061102 
-0.242206 0.103686 0.064921 
0.127487 -0.345070 -0.096724 
0.235515 -0.292753 0.187570 
-0.055700 -0.356196 0.215346 
-0.121054 -0.261413 0.108826 
-0.067724 -0.262852 0.312315 
0.117281 -0.364970 -0.085632 
0.253383 -0.299337 0.132561 
0.142083 0.188613 -0.000335 
0.027725 0.244510 -0.033563 
-0.142190 0.121605 -0.329961 
0.228987 -0.108939 0.295236 
0.070777 -0.416081 0.108743 
-0.192295 -0.033516 0.112111 
0.039079 -0.391901 -0.054711 
0.003398 0.243135 -0.257931 
0.316591 -0.150892 0.196332 
-0.243113 0.157868 -0.249057 
0.230090 -0.161261 -0.075763 
-0.093559 -0.255919 -0.031067 
0.009524 0.110588 -0.316742 
-0.256878 0.493266 -0.178804 
0.141753 -0.143088 0.322357 
-0.002282 -0.319176 0.337518 
0.023027 -0.152744 -0.172134 
-0.138556 0.033487 -0.310762 
-0.147314 -0.142476 -0.011289 
0.271870 -0.063858 0.080936 
0.059760 0.117858 -0.140533 
-0.130981 0.506848 -0.243553 
-0.040496 0.302312 0.026990 
-0.092823 0.515677 -0.151019 
0.133642 0.151278 -0.034380 
0.165469 -0.144118 -0.137420 
-0.282497 0.438932 -0.080348 
0.196706 -0.272087 0.262991 
0.074429 0.057989 -0.176549 
-0.127827 -0.015393 -0.278980 
0.016790 0.276559 -0.057166 
0.213744 -0.401965 0.019863 
0.153194 0.039233 -0.110883 
0.335291 -0.228143 0.142960 
0.010948 0.038584 -0.302996 
-0.024610 0.378734 -0.022740 
-0.208110 0.135861 -0.306937 
0.267268 -0.236951 0.257214 
0.317934 -0.205428 0.277860 
-0.044293 0.028709 0.183255 
0.054286 -0.120354 -0.178888 
0.066037 -0.450905 0.052493 
-0.188102 -0.028921 0.139719 
0.033023 0.242426 0.000120 
0.253295 -0.370478 -0.013914 
-0.049876 0.016380 -0.315125 
0.122641 -0.365000 -0.084509 
0.135436 -0.336672 0.180379 
-0.005082 0.075282 0.164788 
-0.116067 -0.077195 0.217465 
-0.209953 0.231125 0.026400 
-0.186051 0.428032 -0.325602 
0.023144 -0.157080 0.300870 
0.335898 -0.171392 0.293954 
-0.193948 0.503568 -0.109349 
0.049258 -0.430186 0.007319 
-0.057252 -0.347115 0.156534 
-0.204384 0.534782 -0.147468 
0.110021 -0.100574 0.276281 
0.022890 0.206687 -0.232560 
-0.033088 0.199405 0.093354 
0.096825 -0.287131 -0.132981 
0.145893 0.105797 -0.076265 
-0.095165 -0.316592 0.136396 
-0.163677 0.015528 -0.193757 
-0.131266 0.120405 -0.323508 
0.104781 -0.385684 0.132805 
0.051575 0.266309 0.044423 
-0.133228 0.431288 -0.059515 
-0.223650 0.308899 -0.000351 
0.216160 0.055932 0.174788 
-0.087915 -0.329340 0.091230 
0.095964 0.172392 -0.064492 
0.000330 0.305296 -0.134623 
0.177735 -0.425171 -0.030181 
0.303949 -0.317198 0.090267 
-0.172494 0.167795 -0.342987 
0.204281 -0.025010 -0.048448 
0.139577 0.036714 -0.132060 
-0.009731 0.415903 -0.047352 
0.023497 -0.039370 -0.200965 
-0.007851 0.351797 -0.016639 
0.160936 -0.115925 -0.139249 
0.269426 -0.066640 0.069547 
-0.268403 0.226766 -0.227912 
-0.096455 0.106804 -0.329282 
0.331862 -0.240615 0.203120 
0.003910 0.337485 -0.032729 
0.148127 -0.052774 0.227160 
-0.063317 -0.362022 0.099969 
-0.132047 -0.151962 0.220521 
0.156103 0.045275 -0.102043 
-0.184501 0.220121 -0.311593 
0.297693 -0.263452 0.006258 
-0.327773 0.428105 -0.203126 
0.106381 -0.236501 0.376662 
-0.166713 0.315994 -0.300075 
-0.128549 -0.194523 0.089303 
0.254638 -0.048462 0.072259 
-0.095627 -0.245471 -0.061566 
0.142048 0.112248 -0.081313 
0.325942 -0.159873 0.321360 
-0.101443 0.098903 0.139483 
-0.292722 0.374572 -0.046783 
-0.202026 0.419895 -0.058343 
-0.191430 0.124922 -0.039360 
-0.012699 -0.368661 0.258860 
-0.134369 -0.155025 0.031603 
-0.125240 -0.200976 0.220695 
0.064359 -0.132933 0.291559 
0.057926 0.266118 0.043081 
0.117593 0.187174 0.111787 
-0.160637 0.023488 -0.101489 
-0.119831 -0.189796 0.041993 
-0.058667 -0.325605 0.319783 
0.231891 -0.269231 0.242384 
-0.229238 0.404447 -0.052475 
-0.008224 -0.098845 -0.185105 
-0.026472 0.287022 0.038029 
-0.184937 0.356285 -0.328385 
0.184405 0.061595 0.181051 
0.145914 -0.360352 0.142208 
-0.050084 0.113581 -0.335199 
0.327522 -0.283823 0.081125 
-0.075915 0.494716 -0.163682 
0.282579 -0.231262 -0.017698 
-0.056236 -0.311105 0.344121 
-0.232114 0.186008 -0.102180 
-0.113587 0.387885 -0.316315 
0.020784 -0.367278 -0.072091 
-0.157162 0.015159 -0.112749 
-0.009382 -0.213173 -0.149175 
-0.193395 0.140501 0.036452 
-0.126599 0.284040 0.029009 
0.260127 -0.321260 0.113976 
-0.157535 0.146961 -0.372189 
0.242890 -0.147561 -0.047672 
-0.129146 0.137563 0.113243 
0.106879 0.237738 0.005321 
-0.240424 0.193294 -0.130472 
0.107097 -0.435551 0.048069 
0.055401 -0.092944 0.252574 
-0.290286 0.315447 -0.154590 
0.232506 -0.086353 -0.012689 
0.082489 -0.206544 -0.158252 
0.095987 -0.271029 0.341582 
0.092446 -0.337238 -0.104790 
-0.116465 -0.118698 0.226881 
-0.194452 0.108491 0.010666 
0.207979 -0.263646 -0.102560 
0.260366 -0.285094 0.182473 
-0.061171 -0.005049 -0.295368 
0.306883 -0.220762 0.032681 
0.153070 -0.127095 0.309901 
0.028796 0.241164 -0.046296 
-0.193618 0.157974 0.047476 
0.026007 -0.232433 -0.148341 
0.212515 -0.392895 -0.023221 
0.200900 -0.407413 0.020477 
0.247968 -0.267321 0.209624 
-0.317361 0.482627 -0.125995 
-0.064843 0.429614 -0.055693 
0.325748 -0.256171 0.095314 
0.233041 -0.081132 0.254938 
-0.162600 -0.126589 0.099509 
0.321875 -0.169366 0.173451 
0.093335 -0.244087 0.378428 
0.157069 -0.167126 0.346549 
-0.325387 0.444301 -0.143208 
-0.008892 0.412820 -0.077561 
-0.192375 0.071547 -0.025596 
0.186067 0.029292 -0.025811 
0.194342 -0.266129 0.276946 
-0.269819 0.269910 -0.130787 
0.173155 -0.321249 0.177860 
0.123739 0.092620 0.162282 
-0.203558 0.150700 0.094731 
0.084651 -0.440972 0.054651 
-0.239827 0.159109 -0.213731 
0.318053 -0.261045 0.182888 
-0.030679 0.363065 -0.187523 
0.083110 -0.312284 0.291298 
-0.227997 0.212301 -0.268311 
-0.087463 0.163850 0.103699 
0.027440 0.217126 -0.170909 
-0.167576 0.195656 -0.353528 
0.068744 0.069967 -0.163753 
0.164536 -0.120426 0.306945 
0.045248 0.145009 -0.206486 
0.177891 -0.334481 -0.080014 
-0.317054 0.417674 -0.133464 
-0.088444 -0.024499 -0.202302 
-0.047673 0.409245 -0.173101 
0.081752 -0.274753 -0.139840 
0.118794 -0.280117 0.307534 
-0.288896 0.317310 -0.136293 
-0.186915 0.120163 -0.328041 
-0.173164 0.217354 0.058444 
0.094086 -0.310648 -0.113489 
-0.170754 -0.054432 0.180321 
0.021610 0.237663 0.074594 
0.337092 -0.274993 0.124302 
-0.160971 0.541237 -0.169098 
-0.103680 0.248945 -0.321174 
0.128637 -0.115012 0.293744 
0.141400 0.127408 -0.048520 
-0.185063 0.481097 -0.093756 
0.003159 0.274538 0.040343 
0.123768 -0.087450 -0.163307 
0.176452 -0.025443 -0.101706 
0.249794 -0.075223 0.234877 
-0.095746 0.114872 0.130848 
-0.035340 -0.378083 0.243912 
-0.071021 0.150330 -0.338216 
-0.188274 0.136034 0.004403 
-0.219526 0.251714 0.015264 
-0.295443 0.323196 -0.031622 
0.208292 0.084997 0.096958 
-0.321518 0.418146 -0.234257 
-0.107454 -0.110076 0.229001 
0.311421 -0.123076 0.126114 
0.021616 -0.361672 -0.076608 
-0.097742 0.429937 -0.300253 
-0.112369 0.043159 -0.322976 
0.037474 0.222234 -0.027398 
-0.111858 -0.255260 0.037061 
-0.000298 0.091381 0.157268 
-0.235530 0.114582 0.061122 
-0.089785 -0.258415 -0.054716 
-0.084402 0.392851 -0.296038 
0.079768 -0.130727 0.295573 
-0.314732 0.371008 -0.055112 
0.244835 -0.064345 0.063078 
0.114427 -0.050383 0.230945 
0.157161 -0.351768 0.138745 
-0.104873 -0.136909 -0.136794 
-0.013709 0.422351 -0.079234 
-0.199816 -0.030073 0.042273 
-0.182569 0.338419 -0.299985 
0.076940 -0.449557 0.046157 
0.094148 0.181798 0.113217 
0.146105 0.209999 0.072696 
-0.309937 0.393809 -0.259985 
0.225395 -0.156817 0.345469 
0.004846 0.269540 0.047755 
-0.215069 0.054876 0.130725 
0.011534 -0.313752 -0.111956 
-0.312842 0.474121 -0.167489 
0.203040 -0.207125 -0.112801 
-0.195562 0.048601 -0.248978 
-0.252717 0.307426 -0.004318 
0.018587 -0.380940 -0.058539 
0.027174 -0.357591 -0.079209 
0.193334 -0.099123 -0.111438 
0.042270 -0.445856 0.058081 
-0.244030 0.258616 0.005737 
-0.084634 -0.214473 0.247707 
-0.288878 0.287504 -0.203928 
0.337690 -0.223215 0.158914 
-0.067649 -0.288131 0.323936 
0.331715 -0.163720 0.263408 
0.096498 -0.230818 0.377600 
-0.152103 -0.132264 0.185450 
0.059636 -0.326635 0.259135 
0.039805 -0.321520 0.283153 
0.143828 0.054271 -0.117349 
-0.072276 0.485366 -0.094115 
-0.192699 -0.027014 -0.015843 
0.103393 0.074011 -0.162563 
0.242983 -0.181535 -0.072308 
-0.160526 -0.119228 0.152498 
0.289467 -0.223466 -0.000057 
-0.149005 -0.008339 -0.277256 
0.007548 0.355310 -0.104500 
-0.008252 0.302458 -0.200996 
-0.121331 0.283134 -0.310357 
0.131656 -0.200998 0.367020 
0.079668 -0.413998 -0.033427 
-0.036991 -0.347343 -0.038955 
0.202153 -0.150775 0.340351 
0.113561 0.185681 -0.045144 
0.206862 -0.323035 0.161166 
0.087272 -0.347292 -0.098974 
0.311215 -0.121628 0.128016 
0.066262 -0.136397 0.296634 
0.093011 -0.388612 -0.070411 
0.219618 -0.286508 0.202914 
0.175339 -0.145208 0.331208 
-0.156143 0.006087 -0.183936 
0.228939 -0.134121 0.326721 
0.112720 -0.449137 -0.021399 
0.149559 0.046734 -0.112965 
0.304443 -0.278124 0.031580 
-0.211732 0.190788 -0.004758 
0.206999 -0.063317 0.235604 
0.184815 -0.354809 0.113325 
0.188464 -0.315718 0.180406 
-0.141097 0.135246 0.114041 
0.238868 -0.197441 -0.079501 
0.011291 -0.132204 -0.176219 
-0.000051 -0.246762 -0.139230 
0.101788 -0.303287 0.303064 
-0.189507 0.262658 -0.307243 
-0.101569 -0.269868 0.219515 
-0.316664 0.426328 -0.236285 
0.006245 -0.410279 -0.004332 
-0.271502 0.409930 -0.292576 
-0.149039 -0.017306 -0.142657 
-0.031761 0.360038 -0.200767 
-0.079349 0.013873 -0.317409 
-0.163279 -0.091057 0.180476 
0.096835 -0.175972 -0.163663 
0.181859 -0.396633 -0.050239 
-0.265510 0.226884 -0.195424 
0.000332 0.023980 -0.291487 
-0.038960 -0.380977 0.180344 
0.306148 -0.309462 0.102198 
0.109944 0.125277 0.144484 
-0.132776 0.108325 0.128986 
-0.150238 -0.063600 -0.140376 
0.160358 0.148020 0.006184 
-0.182951 0.071734 0.140272 
-0.171660 0.008477 -0.250809 
-0.261806 0.214519 -0.246516 
-0.126221 0.398220 -0.038276 
-0.171014 -0.017442 -0.124780 
0.125888 0.072590 -0.138812 
0.193742 -0.390942 0.052228 
-0.006895 0.090538 -0.324120 
-0.046138 0.337216 -0.267357 
-0.229857 0.190297 -0.081165 
0.131819 -0.404592 0.090802 
-0.196538 -0.006399 -0.089514 
0.120437 -0.373733 0.144429 
-0.276419 0.453522 -0.228735 
0.168114 -0.297553 0.224547 
-0.237467 0.142210 -0.249991 
0.054107 -0.410367 0.137090 
0.065340 0.233599 0.081689 
0.233568 -0.011705 0.205430 
-0.287210 0.266558 -0.060712 
-0.246344 0.216743 -0.111882 
-0.045113 -0.364779 0.000320 
-0.074219 0.456257 -0.074028 
-0.207499 0.015871 -0.005839 
-0.209818 0.284575 -0.262926 
-0.120917 -0.199035 -0.046630 
-0.113893 0.411894 -0.045951 
-0.289394 0.288780 -0.059743 
-0.098714 -0.094956 -0.163616 
-0.156090 0.143604 0.106938 
-0.260554 0.226630 -0.053343 
0.179259 -0.271610 0.277508 
0.097266 -0.043157 0.228026 
0.175083 -0.274220 0.285712 
-0.296652 0.389327 -0.276974 
-0.313684 0.371668 -0.194550 
-0.037563 -0.373585 0.252145 
-0.280752 0.249048 -0.065743 
-0.023847 0.410993 -0.042780 
-0.309601 0.408988 -0.256538 
0.125463 0.233397 0.013789 
-0.164077 0.000778 -0.267226 
0.292019 -0.101700 0.078473 
-0.021650 0.207220 -0.309843 
-0.329767 0.380884 -0.115020 
-0.309125 0.369470 -0.257324 
0.004998 0.290418 -0.139912 
0.195383 -0.292988 0.214488 
0.164241 -0.286920 0.244880 
-0.189969 0.263455 -0.306313 
-0.156167 -0.125371 -0.037870 
0.238491 -0.340096 0.102060 
0.337990 -0.192472 0.203119 
-0.226903 0.404887 -0.052520 
0.073447 -0.172377 0.330589 
0.107420 -0.313529 0.247287 
0.139953 0.208605 0.024415 
-0.165417 0.009094 -0.285651 
0.058815 0.103382 -0.159562 
-0.053215 -0.036885 -0.196533 
-0.268966 0.228828 -0.221639 
0.219886 -0.129600 0.321608 
0.236382 -0.271698 0.234034 
0.075552 -0.173398 0.331311 
-0.096165 0.225567 -0.338064 
-0.078500 -0.343108 0.116981 
-0.199847 0.146612 -0.028836 
-0.194302 -0.038234 -0.064208 
0.133921 -0.222196 0.373520 
-0.218005 0.435844 -0.069630 
0.051649 -0.413942 0.128967 
0.323738 -0.190795 0.103994 
0.131720 0.104629 -0.112927 
-0.186579 -0.044690 0.122069 
-0.204829 0.127435 -0.299872 
0.003106 0.027891 0.188883 
-0.151940 -0.129051 0.065704 
0.143854 0.162618 0.125509 
-0.168054 0.448378 -0.310521 
0.278481 -0.081855 0.212522 
-0.006902 -0.403362 0.008883 
0.098680 -0.115426 -0.170668 
0.045836 0.156499 -0.165321 
0.129703 -0.264799 0.320395 
0.338839 -0.201355 0.191078 
0.237859 -0.121723 0.309608 
-0.312521 0.458434 -0.106861 
0.114115 -0.124516 -0.164913 
0.118504 0.122558 0.148522 
0.037312 0.140218 -0.281992 
0.036000 -0.342819 0.246391 
-0.059068 0.182591 0.098782 
0.018543 -0.376675 -0.066209 
-0.091191 0.478389 -0.246939 
-0.133473 -0.215563 0.117351 
-0.245879 0.290575 0.004126 
-0.067938 0.434587 -0.232792 
-0.195012 0.498349 -0.210579 
-0.320761 0.405047 -0.240906 
-0.168142 0.228555 0.053584 
0.027825 -0.160329 0.304740 
0.116838 0.050069 0.184479 
0.265121 -0.237578 0.252205 
-0.060496 -0.287849 0.341193 
-0.064752 0.280680 0.039751 
-0.298334 0.315949 -0.213087 
0.214192 -0.282791 0.224695 
0.092370 -0.113656 -0.172807 
-0.159375 0.021784 -0.126257 
-0.217881 0.512888 -0.117998 
-0.254695 0.480963 -0.099817 
0.194633 0.017491 0.003914 
-0.100386 -0.303771 0.083418 
0.021855 -0.356020 0.240418 
0.290607 -0.198117 0.313464 
-0.272195 0.456510 -0.227524 
-0.204276 -0.008399 -0.028830 
0.152592 0.018539 -0.120275 
-0.063513 -0.166370 -0.150138 
-0.288329 0.362540 -0.038705 
-0.107371 -0.065035 0.215316 
0.093078 0.168151 -0.069108 
-0.042251 -0.031476 0.213021 
-0.019254 0.202145 0.093418 
-0.135873 -0.152320 0.031576 
0.041691 0.097233 -0.285680 
0.152191 -0.279812 0.295172 
-0.066359 0.432404 -0.224879 
-0.000519 -0.007454 0.206784 
-0.303546 0.349044 -0.038513 
0.187000 -0.038159 -0.090760 
0.289468 -0.220795 0.000794 
-0.306282 0.339991 -0.225054 
-0.138973 0.410234 -0.325962 
-0.045679 -0.366281 0.167794 
-0.236141 0.452577 -0.080753 
0.049158 -0.087921 0.244632 
0.159807 -0.291897 -0.114962 
0.269549 -0.216426 0.297520 
-0.302188 0.475068 -0.106908 
0.249741 -0.245766 0.245822 
0.136878 0.213221 0.021920 
0.094049 -0.096143 -0.175169 
0.318335 -0.289706 0.128882 
-0.274211 0.271791 -0.150361 
0.152929 -0.378875 0.103795 
0.103516 -0.437683 -0.032967 
-0.125536 -0.169995 0.049243 
-0.266207 0.438736 -0.262387 
0.008624 -0.141622 0.281502 
0.223814 -0.361618 0.075538 
0.159004 -0.239883 0.332561 
-0.043336 0.464073 -0.080555 
0.340566 -0.265037 0.137498 
-0.000599 -0.128699 -0.177519 
-0.108718 0.110120 0.132123 
-0.064588 0.461720 -0.154240 
-0.032976 -0.239145 -0.129381 
-0.084548 -0.257847 0.248570 
-0.176853 0.022666 -0.229568 
0.041580 -0.291053 -0.131405 
-0.153994 0.180158 -0.378619 
-0.033967 0.064991 0.167269 
-0.291288 0.320899 -0.141741 
-0.099053 -0.094939 0.226900 
-0.270189 0.322010 -0.015850 
-0.040665 0.411938 -0.144482 
0.313477 -0.137617 0.106371 
0.300705 -0.169900 0.338094 
-0.312918 0.382515 -0.167182 
-0.006593 0.271140 -0.257593 
-0.097233 0.204488 -0.367683 
0.177500 0.009845 0.203085 
0.051768 0.259776 0.060835 
-0.189567 -0.050597 0.044744 
-0.040262 0.138706 0.126427 
0.229858 -0.100208 -0.043444 
0.287022 -0.149926 0.330366 
-0.043830 0.379026 -0.228062 
-0.162903 0.365666 -0.325904 
0.029352 0.258676 0.059256 
0.190312 -0.388648 -0.051590 
0.306876 -0.131818 0.299143 
-0.303894 0.347994 -0.174748 
-0.147810 -0.144232 0.191277 
-0.063963 -0.330902 0.182783 
0.229838 -0.262508 0.248940 
-0.274095 0.250720 -0.026519 
0.094951 -0.213137 -0.157407 
-0.187617 0.037391 -0.280484 
-0.172860 -0.079199 -0.010993 
0.141808 0.218470 0.073542 
0.018302 -0.143094 0.285272 
-0.144212 -0.149657 -0.040143 
0.070979 0.077998 -0.156321 
-0.072357 -0.262057 0.288071 
-0.088526 0.432549 -0.058527 
0.069956 0.134000 -0.098713 
-0.193515 -0.019732 -0.008140 
0.336348 -0.208458 0.258704 
0.034481 -0.368021 -0.071597 
0.242299 -0.229398 0.278257 
-0.225627 0.361238 -0.331341 
-0.119530 -0.201283 -0.044279 
0.045089 -0.001975 0.207838 
-0.156164 0.238556 0.049377 
0.266939 -0.125240 -0.009117 
-0.320783 0.403350 -0.237931 
-0.211568 0.143360 -0.287811 
0.031441 -0.225507 -0.151977 
0.235200 -0.200932 -0.082642 
0.120783 -0.133226 -0.161375 
0.130043 0.174306 0.118689 
0.125570 -0.076285 0.254898 
-0.082724 0.511063 -0.147198 
-0.237944 0.380990 -0.041216 
0.160405 0.003949 -0.113338 
-0.288581 0.269376 -0.081042 
-0.223595 0.097072 0.120074 
0.008620 -0.145421 -0.173028 
0.130395 -0.290427 0.263335 
-0.061460 -0.333540 0.287922 
0.199911 -0.182419 0.361864 
0.163424 -0.069448 -0.135292 
0.070257 -0.446794 0.023035 
0.198725 0.106110 0.097907 
0.213887 -0.294899 0.200355 
0.002525 -0.113266 0.249543 
-0.052785 0.143930 0.121547 
0.227449 -0.104351 0.290814 
0.209929 -0.369262 -0.043734 
0.128724 0.175385 0.118195 
0.114921 0.255078 0.065006 
-0.191679 0.087771 -0.009929 
-0.068045 0.454300 -0.182860 
-0.080917 0.486566 -0.175666 
0.067577 -0.447327 0.061109 
0.199156 -0.367335 0.082566 
0.333336 -0.190558 0.284881 
0.045976 -0.250530 0.377389 
-0.255881 0.299523 -0.246826 
-0.040565 -0.026811 0.211475 
-0.013847 0.421107 -0.081029 
0.043494 -0.321806 0.281904 
-0.228296 0.166317 -0.127070 
-0.212424 0.007374 0.018776 
0.270530 -0.185166 -0.025920 
-0.190661 0.136173 -0.006603 
-0.084688 0.011553 -0.315670 
-0.178559 0.125489 -0.336610 
0.094935 -0.449657 0.027900 
0.275318 -0.209335 -0.025473 
-0.292437 0.309682 -0.063068 
0.163714 -0.058289 -0.133886 
-0.003392 -0.126010 0.258721 
0.147250 0.172095 -0.003673 
-0.293882 0.301682 -0.224082 
0.026688 -0.130852 -0.174350 
-0.102278 0.249061 0.053670 
-0.304928 0.342627 -0.051222 
0.067028 0.062809 -0.170784 
-0.171201 0.006979 -0.259217 
0.279263 -0.083194 0.212494 
-0.089229 -0.244563 -0.082856 
0.284094 -0.249975 -0.015652 
0.229631 -0.100707 -0.044772 
0.201359 -0.327704 0.148942 
0.091384 -0.367734 -0.084800 
-0.134032 0.393981 -0.036236 
-0.319351 0.393902 -0.187919 
-0.075656 0.072819 0.156495 
0.167732 -0.120474 0.307062 
-0.063373 0.356714 -0.009096 
0.140126 -0.435659 -0.034986 
-0.256596 0.280026 0.006060 
0.039720 -0.368073 0.199980 
0.279809 -0.108846 0.275657 
0.342291 -0.252346 0.164148 
0.166434 0.025580 -0.094406 
0.161818 -0.090013 -0.137312 
-0.236801 0.192866 -0.114163 
0.166135 0.170873 0.089181 
0.295026 -0.315933 0.099707 
-0.070298 -0.349746 0.063856 
-0.003187 0.307997 0.000148 
0.073038 0.209478 0.097149 
0.226813 -0.231149 -0.090543 
-0.116465 0.428846 -0.311140 
0.118364 -0.085968 -0.165916 
0.309084 -0.243552 0.206344 
0.147831 0.045884 -0.116326 
0.318705 -0.137618 0.136166 
-0.063608 -0.339738 0.247747 
0.141803 -0.374823 0.124461 
-0.221078 0.326815 -0.008756 
0.310554 -0.249223 0.040402 
0.128836 0.019200 -0.151651 
0.165834 -0.248545 0.312433 
-0.169382 0.015320 -0.095050 
0.102914 0.023159 -0.174988 
-0.320904 0.429906 -0.136059 
0.156837 -0.194932 -0.140193 
-0.071962 0.444620 -0.065415 
0.076554 -0.061208 -0.185645 
0.066631 0.101871 0.155364 
0.047242 -0.083411 0.241592 
0.257754 0.007973 0.164607 
0.281292 -0.134314 0.012315 
0.023504 -0.403768 0.166883 
0.139122 -0.042058 0.224671 
-0.315347 0.424020 -0.078302 
-0.275685 0.485011 -0.178962 
0.172764 -0.377404 0.093098 
0.241932 -0.087756 0.016754 
0.213217 -0.030053 -0.012436 
0.159234 -0.137086 0.319621 
0.148690 -0.163793 -0.147110 
-0.041844 0.148172 0.121028 
-0.273374 0.251805 -0.178077 
0.132371 -0.286490 0.268806 
-0.142882 -0.159445 0.198203 
-0.008737 -0.171431 0.298611 
0.040695 0.240404 0.075482 
-0.312097 0.364364 -0.198049 
0.152911 0.100095 -0.048630 
-0.001320 -0.110293 0.245258 
-0.196942 0.150274 0.095119 
-0.323486 0.423232 -0.117667 
0.273216 -0.021972 0.169795 
-0.166740 -0.093797 -0.070515 
0.016997 -0.204167 0.337933 
0.031221 -0.328723 0.298125 
-0.142188 -0.187057 0.130037 
0.162823 0.024657 0.196942 
-0.107661 -0.200520 -0.090115 
-0.202277 0.164569 0.073664 
0.277088 -0.094588 0.042292 
-0.239236 0.285414 0.007820 
-0.131958 -0.164793 0.076334 
0.130741 -0.256685 -0.140306 
-0.264499 0.242712 -0.023082 
0.060091 0.270269 0.051602 
0.018093 -0.101287 -0.184797 
-0.100270 -0.217157 0.236917 
-0.233930 0.401820 -0.051600 
0.086153 -0.432299 -0.012392 
-0.069057 -0.302932 0.317373 
-0.198157 0.378805 -0.337462 
0.032708 -0.076358 0.235765 
0.035475 -0.034327 -0.200062 
-0.301569 0.301582 -0.092311 
-0.186998 0.176914 -0.294516 
-0.073090 0.463139 -0.189573 
-0.314412 0.370365 -0.203635 
0.182378 -0.217593 0.362920 
-0.063404 0.111868 -0.336161 
-0.026060 -0.365317 -0.031467 
-0.192671 0.127533 0.109396 
0.140532 0.211890 0.035624 
0.036307 0.262608 0.039233 
-0.051607 0.450587 -0.070159 
0.090134 -0.134618 -0.171360 
-0.260627 0.452912 -0.085723 
0.003371 0.306940 -0.097786 
0.305155 -0.241661 0.021188 
-0.250284 0.243946 -0.010051 
0.040500 -0.281841 0.363712 
-0.050879 -0.373945 0.049828 
-0.290232 0.441240 -0.084187 
0.052001 -0.436381 0.091458 
-0.076637 -0.279422 0.295644 
0.132614 -0.228073 -0.145213 
0.000532 0.004125 -0.215136 
-0.033955 0.465788 -0.091150 
0.296526 -0.082808 0.137065 
0.210919 -0.374488 -0.036993 
-0.283524 0.394339 -0.055642 
0.020629 -0.346400 0.272027 
-0.096811 0.230004 0.065501 
0.156483 0.027056 -0.110599 
-0.219390 0.126736 -0.175249 
0.192242 -0.422720 0.002626 
-0.187215 -0.020993 0.158106 
-0.328397 0.443022 -0.186977 
0.271047 -0.062035 0.081410 
0.026709 -0.364010 -0.076325 
-0.057892 -0.181892 0.260718 
-0.225808 0.035653 0.058749 
-0.071703 0.043611 -0.324352 
-0.027729 -0.009154 -0.249458 
0.049306 -0.003329 0.209622 
0.112745 -0.340481 0.197864 
-0.085715 0.202197 0.082897 
-0.269426 0.263638 -0.141701 
0.076891 -0.387858 -0.070255 
-0.216402 0.009041 0.045458 
-0.036875 0.326768 0.009514 
-0.106660 0.363362 -0.015454 
0.204923 -0.327316 0.126053 
-0.033272 0.106208 -0.329392 
-0.059721 0.444620 -0.159192 
0.142738 -0.318283 0.217315 
0.181299 0.132691 0.068696 
-0.093925 -0.317135 0.144002 
0.092834 -0.418554 0.090361 
0.160659 -0.130221 0.314893 
0.157191 -0.244497 0.323139 
0.164855 -0.323473 0.174725 
0.121725 -0.326558 0.211090 
-0.029950 -0.372645 -0.009651 
0.181379 -0.343570 0.132513 
0.132124 0.065963 -0.131152 
-0.131311 0.071429 0.149682 
0.207295 -0.025438 -0.030769 
0.226979 -0.397306 0.015461 
-0.108452 -0.011618 -0.292981 
-0.182909 0.153948 -0.329565 
-0.231326 0.138020 0.085583 
-0.128647 0.505301 -0.248172 
-0.223089 0.525333 -0.135271 
-0.154259 -0.150248 0.104630 
-0.054131 0.490921 -0.139164 
0.198655 -0.068169 0.241707 
0.143420 -0.012015 0.213297 
-0.142281 0.471481 -0.291153 
0.010427 0.295962 -0.031944 
-0.030371 -0.351263 -0.041661 
0.053523 -0.355873 0.212086 
-0.201761 -0.025770 -0.055694 
0.237550 -0.401524 0.002388 
-0.131169 0.157366 -0.386145 
0.302372 -0.116349 0.257809 
-0.274171 0.421585 -0.070186 
0.218750 -0.021121 0.040886 
-0.113140 -0.027570 0.199267 
-0.002037 -0.353697 0.276835 
-0.016695 -0.303672 0.372030 
-0.305504 0.475901 -0.107779 
-0.008596 0.069946 -0.322170 
-0.179636 0.067683 -0.112345 
-0.041328 0.209344 -0.337020 
0.031598 0.201293 -0.178344 
-0.265448 0.266860 -0.108754 
0.151258 0.029093 0.195317 
-0.220338 0.127794 0.056044 
0.133256 -0.254045 0.339870 
0.084330 0.151616 0.128820 
-0.122417 0.325923 -0.274059 
0.308876 -0.193960 0.043719 
-0.234470 0.177135 -0.135433 
-0.171168 0.167866 -0.350862 
-0.025304 0.054756 0.172686 
0.169009 0.023694 -0.089434 
0.274066 -0.294766 -0.029648 
0.001388 0.091176 -0.320578 
-0.044868 -0.363334 -0.001674 
-0.235252 0.467046 -0.234604 
0.140707 -0.088815 0.271626 
0.228307 -0.275336 0.222116 
-0.103023 0.531040 -0.133543 
0.149075 -0.293388 0.248801 
-0.028782 0.365245 -0.163817 
0.042413 -0.000801 0.206493 
-0.104151 -0.238719 0.003561 
-0.041603 0.188217 -0.357131 
-0.178258 0.170556 -0.309743 
0.183914 0.101799 0.022169 
0.121735 0.146573 -0.089004 
-0.141346 0.388668 -0.034174 
0.140155 0.106895 -0.090477 
0.235183 -0.132652 -0.048949 
0.048700 0.222519 -0.006828 
0.262206 -0.169736 -0.043850 
-0.023831 -0.006323 -0.228428 
-0.043479 -0.313707 -0.077664 
-0.276432 0.295242 -0.005750 
-0.310151 0.466915 -0.107246 
-0.032566 -0.287923 0.372345 
0.267301 -0.037552 0.098196 
-0.247993 0.257594 -0.253079 
-0.196978 0.142532 -0.325397 
0.230142 -0.100793 -0.042623 
0.001475 0.252691 0.062627 
0.093078 -0.447557 0.038237 
-0.084378 0.349955 -0.004918 
0.044713 0.147895 -0.207402 
-0.128806 -0.176406 0.220229 
0.012408 0.267689 0.045100 
0.186259 -0.067266 0.241790 
-0.103681 -0.038187 0.206416 
0.207222 -0.026192 -0.032775 
-0.241528 0.200630 -0.117876 
0.013875 -0.432082 0.110995 
-0.263860 0.214352 -0.223934 
-0.182015 -0.033564 -0.117449 
-0.170875 -0.065615 0.170425 
-0.024880 0.076118 -0.327713 
-0.302308 0.382585 -0.271469 
0.262651 -0.093407 0.261530 
0.086832 -0.074621 0.244804 
-0.041668 0.166297 0.110975 
0.193284 -0.331092 0.146272 
0.166734 -0.443172 -0.012020 
-0.172844 0.530657 -0.125828 
-0.032468 0.129014 0.132370 
0.122210 -0.110866 -0.163232 
-0.074560 0.481012 -0.171473 
0.240569 -0.399938 0.002339 
0.067073 -0.283591 -0.134333 
-0.170235 -0.091364 0.142567 
0.225958 -0.108613 0.295648 
0.169435 0.051356 -0.064028 
-0.320401 0.376357 -0.125767 
0.170058 0.069784 -0.008254 
-0.220937 0.145224 0.097310 
0.124655 0.103679 0.157326 
-0.201299 0.101800 -0.285885 
-0.089700 -0.215029 0.244389 
-0.291838 0.301851 -0.190885 
0.121282 -0.435213 0.036923 
0.102372 -0.174252 -0.162409 
0.041236 0.239185 0.008869 
0.031190 -0.423105 -0.005533 
-0.291476 0.447260 -0.086393 
0.101737 -0.336417 0.212697 
-0.178382 -0.047571 0.162532 
0.028181 0.017325 -0.207712 
-0.227492 0.520139 -0.154261 
-0.063126 -0.325236 0.307018 
-0.204506 0.519797 -0.122189 
0.031992 -0.325921 -0.108834 
-0.053806 -0.370314 0.055337 
-0.058007 -0.208306 0.285301 
0.251514 -0.223205 0.299806 
-0.020291 -0.302650 0.374167 
-0.105094 0.520117 -0.206949 
-0.243593 0.218378 -0.087343 
-0.069275 -0.248664 0.304682 
-0.152680 0.152028 -0.378309 
0.113062 -0.322808 -0.109179 
0.030559 -0.286213 0.365820 
-0.159127 -0.067363 0.194550 
0.315797 -0.125525 0.185416 
0.092707 -0.180617 0.342832 
0.112316 0.261991 0.036236 
0.248950 0.016059 0.131366 
0.192144 -0.268758 -0.110821 
-0.063478 0.267028 0.048009 
0.092825 -0.396744 0.128524 
0.199524 -0.099396 0.285868 
-0.243188 0.238114 -0.257596 
-0.200060 0.353690 -0.019711 
0.223055 -0.256291 0.276145 
0.121831 0.018318 -0.159098 
0.203291 -0.326568 0.130854 
0.240621 -0.225326 -0.075375 
-0.002155 -0.086113 -0.186152 
0.286963 -0.100564 0.064275 
0.132942 -0.320095 0.216362 
0.159951 -0.356947 0.134644 
-0.170053 0.032118 -0.169206 
0.332676 -0.167004 0.251893 
-0.075573 -0.198938 0.253436 
0.092855 -0.365371 0.154297 
-0.265938 0.232837 -0.243345 
-0.051590 -0.307411 0.353730 
-0.257759 0.408598 -0.306206 
0.073016 -0.007835 -0.193291 
0.157717 -0.080974 0.263389 
0.271297 -0.262792 0.210788 
0.239500 -0.087634 0.264327 
0.018082 0.019886 -0.225908 
-0.063574 -0.121940 0.239150 
-0.090142 -0.325856 0.105896 
0.196105 0.080368 0.034565 
0.300028 -0.167513 0.338463 
0.158577 -0.073852 -0.138969 
0.070077 -0.395485 -0.050085 
0.084658 0.027358 -0.186727 
0.292216 -0.203228 0.004923 
0.049349 -0.273741 -0.138893 
0.309321 -0.114128 0.193420 
0.139662 0.183345 0.114034 
0.062817 -0.021265 0.218620 
0.212995 -0.323847 0.128533 
-0.319992 0.428504 -0.134602 
-0.083069 0.512855 -0.111735 
-0.119274 -0.200028 0.029574 
-0.231834 0.062009 0.079020 
-0.122906 -0.197039 0.016859 
0.272606 -0.023562 0.161544 
-0.242462 0.097123 0.077070 
0.040698 0.232333 0.000748 
0.136265 -0.248498 0.346416 
-0.326358 0.419898 -0.215774 
-0.182077 -0.047427 0.144500 
-0.051842 -0.348751 -0.013410 
-0.166886 0.041383 -0.082748 
0.025736 -0.150418 0.296759 
0.166460 -0.320006 0.183964 
0.036202 -0.087146 0.241843 
-0.077216 0.468978 -0.200244 
0.093593 0.176595 -0.059508 
-0.194120 0.065770 -0.029312 
0.096625 -0.422786 0.074386 
0.067482 -0.016491 0.216362 
0.106859 -0.303727 0.267056 
-0.037498 -0.356505 0.296324 
-0.066012 0.430886 -0.227424 
-0.124675 -0.165047 0.061277 
-0.176600 0.073747 -0.039510 
0.027175 0.044719 0.183009 
0.307495 -0.234238 0.028774 
-0.172023 0.172796 -0.347420 
-0.186560 0.021350 0.159654 
0.332198 -0.257193 0.110099 
0.078511 -0.208994 0.360136 
-0.117483 0.497343 -0.101521 
0.139720 -0.376741 0.122404 
0.027570 -0.403396 0.166201 
0.252162 -0.025323 0.073152 
-0.196014 0.050995 -0.245721 
0.127925 -0.112887 0.291002 
0.284175 -0.093706 0.063890 
0.185213 -0.036251 0.220462 
-0.182849 0.499896 -0.216113 
-0.204136 0.307540 0.003852 
0.268859 -0.298343 0.141778 
0.004210 -0.383176 0.215993 
-0.200700 0.099938 0.123771 
0.087101 -0.316872 -0.112722 
0.161583 -0.236934 0.339075 
0.310730 -0.111733 0.148912 
-0.242877 0.156511 -0.244102 
-0.180037 0.506406 -0.108487 
-0.021068 0.121159 -0.327713 
-0.057280 -0.126137 -0.166964 
-0.036377 0.403903 -0.037477 
-0.066571 0.506056 -0.146700 
-0.204862 0.070074 -0.245078 
-0.169952 -0.100563 0.119959 
0.014301 -0.192389 0.327372 
-0.261333 0.292416 0.000304 
-0.119249 -0.180059 0.228639 
-0.012876 -0.065002 -0.190826 
0.164134 -0.288905 0.235807 
-0.135823 -0.195608 0.181017 
-0.174740 0.086417 0.133056 
-0.103324 -0.062271 0.215574 
-0.132453 0.319554 -0.288920 
-0.164933 -0.089001 0.048991 
-0.128045 0.100184 -0.319640 
-0.183847 0.080268 -0.023424 
0.089338 0.129802 -0.105270 
0.104176 -0.040816 -0.175373 
0.280516 -0.279611 0.171949 
0.193798 -0.041838 -0.082725 
-0.187081 0.179229 0.069644 
0.004494 -0.065871 -0.194866 
0.022659 0.256888 -0.073763 
0.137585 -0.290369 0.257522 
0.193514 -0.417704 0.009251 
0.153396 -0.215809 -0.139568 
-0.159287 -0.012628 0.179811 
0.110176 -0.245743 0.371082 
0.171876 0.051453 0.185469 
-0.213017 0.249000 0.021543 
0.080832 -0.294631 0.308371 
0.030102 0.241867 -0.026279 
0.009074 0.246047 -0.225013 
-0.026600 0.307274 0.023400 
0.290155 -0.071423 0.124502 
0.205434 -0.346174 0.106480 
-0.056982 0.094505 -0.333441 
-0.189318 0.139675 0.006026 
0.230069 -0.203637 0.349717 
-0.221417 0.215631 -0.001823 
-0.219346 0.153081 0.083578 
-0.222530 0.034864 0.072879 
-0.236486 0.087779 0.095814 
-0.149059 -0.005407 -0.135984 
0.111377 -0.293034 0.278004 
-0.117639 -0.160244 -0.109430 
0.171796 -0.306571 -0.102776 
-0.271386 0.296174 -0.240686 
-0.059380 -0.360360 0.046944 
0.005101 0.338853 -0.102675 
0.198708 -0.038223 -0.072998 
-0.064521 -0.300378 -0.060426 
0.141472 -0.112353 0.294276 
-0.067119 0.206236 0.084293 
0.126102 -0.388632 0.120552 
0.075746 0.268664 0.055656 
0.309528 -0.290725 0.043112 
-0.190453 0.518412 -0.118450 
0.124280 -0.299246 -0.110323 
0.178437 0.055615 0.004151 
-0.109449 -0.024187 -0.197739 
-0.272594 0.252802 -0.083020 
-0.066628 -0.333009 0.222944 
0.300791 -0.203004 0.025321 
-0.235204 0.159195 -0.181270 
0.163808 0.009374 0.202867 
-0.012711 -0.394044 0.212130 
0.027098 0.070795 0.172084 
-0.241684 0.162744 -0.214762 
0.059432 -0.390554 -0.044969 
0.005070 0.279249 -0.172168 
0.089202 -0.412977 0.096341 
0.132163 0.239562 0.062381 
-0.289211 0.302223 -0.177191 
-0.227629 0.506155 -0.179511 
-0.122920 -0.172917 -0.089349 
0.003441 0.286113 0.021987 
0.029600 -0.342395 0.271328 
0.342600 -0.240930 0.177779 
-0.031655 -0.387631 0.068410 
0.209027 -0.154937 0.344238 
-0.312678 0.361374 -0.061526 
0.153095 -0.253856 0.310686 
-0.076264 0.156411 0.110126 
-0.046096 0.008148 0.193246 
0.140217 0.201798 0.013710 
-0.054264 0.368055 -0.258641 
-0.293923 0.282968 -0.087372 
0.106586 -0.376454 0.137803 
-0.174134 -0.055121 0.170119 
-0.083521 0.487714 -0.184997 
0.213416 -0.377359 0.055402 
-0.200420 0.041432 -0.044446 
0.122383 -0.263509 0.334989 
-0.303945 0.335503 -0.055437 
0.043271 0.088080 0.163788 
-0.078115 -0.302490 0.224018 
0.026081 0.069994 -0.307737 
0.197855 -0.283719 0.243009 
0.213070 -0.379432 0.052002 
-0.073080 -0.315701 -0.023897 
0.333906 -0.266886 0.166007 
0.200335 -0.015175 -0.048848 
0.233623 -0.071320 0.017122 
-0.167261 -0.011006 0.176557 
-0.017046 0.395795 -0.128540 
-0.215368 0.528695 -0.137009 
-0.312936 0.363882 -0.231801 
0.264497 -0.060130 0.210693 
0.065101 -0.155761 0.311728 
0.103179 0.082558 0.166234 
0.140183 -0.382854 0.113465 
0.067360 -0.080394 -0.185734 
-0.025839 0.323335 0.006962 
-0.104100 0.148181 -0.362245 
0.020593 -0.357813 0.244192 
0.075176 -0.335297 0.229376 
-0.197333 0.066652 -0.217673 
0.083269 0.128648 0.141685 
-0.096007 -0.081293 0.224256 
-0.095561 -0.146999 0.239083 
-0.253054 0.386865 -0.314875 
0.265516 -0.132870 -0.016882 
-0.177586 0.195509 -0.319266 
0.035994 0.162969 -0.246981 
-0.080118 0.035587 -0.318929 
-0.056132 0.323534 -0.273906 
-0.004684 -0.066548 -0.192883 
-0.023328 -0.104677 -0.182157 
0.299243 -0.143863 0.053564 
0.315087 -0.257192 0.191428 
0.171291 0.138397 0.034703 
0.155432 0.188224 0.067233 
-0.165499 0.027480 -0.159958 
0.017014 -0.370014 0.227254 
-0.301438 0.381024 -0.272064 
0.195570 -0.130549 0.320955 
0.085222 -0.434394 -0.005053 
-0.146401 -0.064097 0.200767 
0.119851 -0.128344 0.304383 
-0.316150 0.392340 -0.167870 
0.220763 -0.192824 -0.096072 
0.205844 -0.345487 -0.068887 
0.212265 -0.371771 0.071123 
0.006954 0.223186 -0.284526 
-0.012596 0.427021 -0.067554 
-0.186335 0.494074 -0.223576 
0.075567 0.256217 0.065437 
0.169906 -0.302522 0.206319 
0.090316 -0.420645 -0.044657 
-0.000869 0.301581 -0.154840 
0.298923 -0.323309 0.022343 
-0.077792 -0.345413 0.107496 
-0.100128 -0.243515 -0.037636 
0.208974 -0.240453 0.293193 
-0.223242 0.152053 0.090569 
-0.114813 -0.239971 0.214849 
-0.198219 -0.005676 -0.005323 
-0.122389 0.385597 -0.319491 
-0.217931 0.331038 -0.295114 
-0.001093 0.311220 -0.124346 
-0.042115 0.454471 -0.073009 
-0.065646 -0.338965 -0.000862 
-0.175712 0.523078 -0.186232 
-0.250584 0.329311 -0.015322 
0.034239 0.262007 0.037637 
-0.228046 0.103987 0.115156 
-0.000366 0.007289 -0.253685 
-0.182571 0.476911 -0.090761 
0.080155 -0.193321 0.348862 
0.199970 0.048242 0.022519 
0.085858 -0.409790 -0.052726 
0.264991 -0.062044 0.073600 
-0.226557 0.124066 0.107704 
-0.220218 0.124438 -0.183001 
0.049859 -0.332237 0.254962 
-0.128166 0.017493 0.175666 
-0.249363 0.413293 -0.308318 
-0.120811 -0.255271 0.071337 
-0.103422 -0.000002 0.188998 
-0.038740 0.216378 0.082257 
-0.268322 0.501575 -0.156203 
0.050116 -0.447306 0.048568 
0.141081 -0.418424 0.048945 
0.233519 -0.130592 0.320543 
-0.208593 0.297215 -0.272802 
-0.007078 0.316645 -0.152950 
0.203593 -0.328125 0.145428 
-0.019374 -0.321505 0.346994 
0.216685 -0.243672 -0.098350 
0.287955 -0.245767 0.221587 
0.083131 -0.045375 -0.185348 
0.012391 -0.035111 -0.202444 
0.194144 -0.315887 0.174355 
-0.215643 0.032081 0.001355 
-0.081333 -0.255192 0.260201 
-0.162453 0.264853 0.034588 
-0.238348 0.256942 -0.258369 
0.050376 -0.309640 -0.111766 
-0.003861 0.348907 -0.113852 
0.167180 -0.031242 -0.121425 
0.302804 -0.086545 0.188137 
0.192636 0.084579 0.166787 
-0.319506 0.452346 -0.116487 
-0.010126 0.312301 -0.189006 
0.125268 0.146387 -0.080354 
-0.181410 0.057680 -0.293994 
-0.087398 0.039314 -0.326373 
-0.070014 0.425578 -0.259450 
-0.126051 0.254113 0.046234 
0.005295 0.308756 -0.075200 
0.206651 -0.253353 -0.103411 
0.145611 -0.073608 -0.148337 
0.009385 0.345888 -0.033691 
0.093968 0.048284 -0.177150 
-0.071397 0.150957 -0.345614 
-0.150158 -0.160575 0.093527 
0.001393 0.383739 -0.069802 
-0.168245 -0.113924 0.085826 
0.021200 0.038407 -0.281334 
0.142739 -0.112312 0.294528 
-0.192038 -0.034417 -0.022981 
-0.023173 0.013779 -0.302062 
-0.117716 -0.268181 0.139333 
-0.029600 0.163542 -0.320865 
-0.198829 0.290260 -0.291438 
-0.074745 -0.242867 0.285688 
-0.204639 0.125233 -0.316535 
-0.269114 0.273701 -0.106770 
-0.050309 0.148554 -0.320467 
0.153245 -0.070543 0.248822 
0.027640 -0.222165 -0.153101 
-0.182918 0.055560 -0.291471 
-0.148753 0.028659 0.165941 
-0.040024 0.206692 -0.339669 
-0.182755 0.113347 -0.011255 
0.271503 -0.161516 0.346005 
-0.066155 -0.262109 0.319371 
0.303608 -0.119936 0.267247 
-0.270484 0.290667 -0.001443 
-0.104430 -0.222805 -0.068740 
0.308299 -0.326388 0.074240 
-0.011081 0.368017 -0.017823 
-0.172792 0.061428 -0.057377 
-0.145218 0.533254 -0.126696 
0.195771 -0.211470 0.361289 
-0.223218 0.137496 -0.274166 
0.194440 -0.422753 -0.014538 
0.096796 -0.311211 0.266187 
0.024371 -0.198041 0.335419 
-0.282001 0.312110 -0.013767 
0.004731 0.379187 -0.068237 
0.272430 -0.109826 0.015413 
-0.311245 0.363989 -0.116477 
-0.124885 0.391564 -0.034674 
0.319217 -0.305596 0.061555 
-0.147116 0.133343 0.114680 
-0.163729 -0.092202 0.008694 
-0.294685 0.400405 -0.278639 
-0.145939 0.157622 0.099890 
0.230953 -0.347947 0.096360 
-0.057530 0.379622 -0.257297 
0.175404 0.109042 0.006877 
-0.026875 0.067831 0.166586 
-0.174781 -0.078684 -0.063885 
-0.092393 -0.253628 -0.055963 
0.278850 -0.133161 0.009170 
0.039048 0.204296 -0.057506 
0.175559 -0.427160 0.012070 
-0.212843 0.480435 -0.095826 
-0.009265 -0.121283 0.248629 
-0.008486 0.038292 0.183700 
0.223613 -0.125203 -0.073654 
-0.066602 0.178510 0.099216 
0.104086 -0.076405 -0.174435 
0.063134 0.259443 0.061975 
-0.164951 0.442892 -0.319717 
0.030242 0.209092 -0.170175 
-0.032718 -0.288304 -0.104068 
0.288336 -0.219836 -0.001888 
0.302682 -0.104140 0.197576 
-0.034641 -0.354056 0.304694 
0.021455 -0.325507 -0.108098 
0.220317 -0.264306 0.255677 
-0.192274 0.156883 0.042644 
0.043906 0.099359 -0.275894 
0.052180 0.087361 -0.200920 
0.157075 -0.279658 0.258873 
0.285055 -0.063300 0.117482 
0.096930 -0.294732 0.284368 
0.176585 -0.388577 0.067519 
-0.107579 -0.221175 -0.059848 
0.174389 0.049179 -0.045270 
-0.131832 0.088210 -0.326444 
0.191861 -0.243504 0.300553 
0.341615 -0.258418 0.151513 
-0.286681 0.487574 -0.165541 
0.018004 -0.359206 -0.075721 
0.315214 -0.165501 0.082107 
-0.194770 0.125841 0.026794 
-0.096825 -0.301127 0.173931 
0.161642 -0.250320 -0.132708 
-0.046362 -0.153728 0.250278 
0.017943 0.269385 -0.078642 
0.173560 -0.222192 0.363752 
0.235136 -0.332257 -0.058240 
0.135572 0.066022 0.177040 
-0.003808 -0.046852 0.221372 
-0.146071 -0.004277 -0.180804 
0.272748 -0.024360 0.159901 
-0.026418 -0.068574 -0.192802 
-0.202018 0.111736 -0.288886 
0.020573 0.268532 0.002082 
-0.052002 0.397099 -0.228955 
-0.218458 0.041547 -0.014424 
-0.254065 0.239142 -0.089406 
-0.203398 0.009094 0.007061 
-0.151932 -0.133878 -0.032292 
-0.210391 0.019754 -0.010176 
0.227191 -0.286386 -0.083038 
0.182526 -0.309290 0.186072 
-0.185039 -0.044806 0.034488 
-0.277981 0.255142 -0.212364 
0.012122 0.368543 -0.028597 
0.168068 -0.398014 -0.054785 
-0.031092 0.222179 -0.308366 
-0.033476 -0.352470 -0.034699 
-0.236762 0.242886 -0.004976 
0.104044 -0.141755 0.312041 
-0.096774 0.134552 -0.336040 
0.250684 -0.097542 0.272838 
0.251027 -0.259394 -0.062651 
0.012524 -0.371175 0.234111 
-0.011259 0.288400 -0.244618 
0.014079 -0.243635 0.367745 
-0.196282 0.185411 0.040090 
0.090940 -0.303495 0.294197 
-0.080520 0.191613 0.088950 
-0.164998 0.454623 -0.075892 
-0.182847 0.048616 -0.288234 
-0.090187 0.168496 -0.378766 
-0.184735 0.113316 0.117925 
-0.207943 0.049388 0.141620 
-0.272210 0.237277 -0.227088 
0.205584 -0.326702 0.126173 
-0.058911 0.310394 0.021057 
-0.074702 -0.283817 0.302849 
-0.045421 -0.374397 0.094537 
-0.105413 0.196776 -0.380502 
-0.057912 0.163487 0.110125 
0.042173 0.100755 -0.283832 
0.259575 -0.120221 -0.017633 
-0.145753 0.021570 0.170538 
0.280716 -0.075350 0.081886 
-0.165518 -0.013759 -0.125567 
-0.150484 -0.123488 -0.074577 
0.224426 0.072497 0.145763 
-0.028396 -0.039194 -0.200136 
-0.129544 -0.209540 0.094574 
0.262343 -0.340544 0.077306 
-0.124720 -0.179180 0.041475 
0.286280 -0.254750 0.206983 
0.136199 -0.224426 -0.145102 
-0.138345 0.492851 -0.098952 
0.267588 -0.211697 -0.039470 
-0.116911 0.361775 -0.015381 
0.216102 -0.307675 0.176544 
0.249169 -0.386787 0.015990 
0.002145 -0.319948 -0.104412 
0.221167 0.057026 0.093941 
-0.065543 -0.004593 0.197821 
-0.139435 0.305797 -0.305315 
-0.027984 -0.190420 0.302601 
-0.198534 0.167713 0.071308 
0.106490 0.248785 0.017283 
-0.106089 0.511263 -0.232195 
0.231862 -0.059205 0.059183 
0.177306 -0.374535 0.089776 
0.168083 -0.438832 -0.001465 
-0.104869 0.230631 -0.344395 
-0.174532 0.059842 -0.105074 
-0.144349 -0.109462 0.211172 
-0.181513 0.278839 0.023484 
0.168160 -0.293144 -0.114969 
-0.236821 0.341465 -0.313754 
-0.198258 0.137465 -0.041751 
-0.304508 0.342523 -0.047394 
-0.202725 0.313070 -0.281280 
0.175043 -0.038941 0.221072 
-0.058383 -0.269453 0.336528 
-0.271004 0.249218 -0.170940 
-0.304862 0.440323 -0.228070 
0.309126 -0.258532 0.189929 
-0.170515 0.128163 -0.341197 
0.009525 0.380919 -0.030293 
-0.056799 0.507357 -0.122451 
-0.082187 -0.280803 0.262972 
-0.200976 -0.010405 -0.020859 
-0.154283 -0.148874 0.121130 
0.078115 -0.201456 0.355314 
-0.109787 0.338417 -0.000088 
-0.186683 0.082905 -0.107835 
-0.106628 0.125337 -0.324736 
-0.002147 -0.167523 -0.164584 
-0.177395 -0.031674 0.173083 
0.056112 -0.282402 -0.135977 
0.023517 -0.252333 0.374217 
0.105375 -0.023549 -0.174785 
0.298630 -0.206096 0.021116 
-0.096093 -0.277902 0.220761 
0.050243 0.150337 -0.134746 
0.199199 0.000824 -0.024642 
0.138753 0.063236 -0.121444 
-0.283594 0.325664 -0.018559 
-0.032794 -0.304163 0.372048 
-0.104459 0.245215 -0.326576 
-0.031695 0.398589 -0.034280 
-0.083676 0.234851 -0.307378 
-0.000889 0.409137 -0.050086 
-0.080311 0.147773 0.113812 
-0.194074 0.117040 -0.323329 
0.100171 0.094540 0.159560 
-0.055570 -0.346710 0.167287 
-0.183022 -0.057592 -0.076821 
0.076711 -0.409730 -0.036244 
-0.120478 0.464970 -0.081276 
-0.189424 -0.029593 -0.101522 
-0.198908 -0.019886 0.101170 
-0.000598 0.311111 -0.119247 
0.121884 -0.399498 0.096032 
-0.126708 -0.101954 -0.137199 
-0.164451 -0.031396 -0.141923 
0.338687 -0.209382 0.183049 
0.009487 0.346708 -0.100627 
0.173952 -0.033045 -0.110220 
-0.041065 -0.360404 0.280778 
-0.067944 0.446540 -0.204698 
0.025172 0.179656 -0.281918 
0.208632 0.065312 0.172830 
0.213693 -0.207026 0.356293 
-0.166599 0.511756 -0.211203 
0.098656 -0.284187 0.311727 
-0.265501 0.228905 -0.243658 
-0.084162 -0.306651 0.190870 
-0.312198 0.340279 -0.107034 
0.104315 -0.415080 0.089163 
-0.212196 0.525396 -0.127237 
-0.163054 -0.082315 0.039821 
-0.232955 0.067168 0.082598 
-0.038401 0.438681 -0.060774 
0.049820 -0.274248 0.370554 
0.324067 -0.148874 0.261710 
-0.319870 0.384134 -0.213640 
0.153720 -0.353691 0.142586 
0.183143 -0.033831 -0.096499 
-0.298932 0.341150 -0.031989 
-0.081608 0.463244 -0.078421 
-0.065789 -0.082170 -0.180437 
-0.135597 -0.158157 -0.062149 
-0.204719 0.470942 -0.088937 
-0.044611 -0.358951 0.277821 
0.157233 0.172829 0.035913 
-0.328338 0.430033 -0.197143 
0.275370 -0.162390 -0.012626 
-0.050023 0.482019 -0.129418 
-0.250511 0.243050 -0.011278 
-0.044767 -0.170163 0.265516 
-0.202578 0.297978 0.010082 
-0.120163 -0.183449 0.050168 
-0.009951 -0.007542 -0.208506 
0.300552 -0.216337 0.273126 
0.305632 -0.126815 0.208146 
0.015801 -0.367556 -0.068704 
0.268047 -0.270171 0.198008 
0.312683 -0.133486 0.194475 
-0.099405 0.074874 -0.329766 
-0.086125 0.487507 -0.199897 
-0.103681 -0.268576 0.021404 
-0.074128 0.223524 -0.312998 
-0.061855 -0.357886 0.052607 
0.205070 -0.161366 -0.109295 
0.049582 -0.189950 0.338053 
-0.148397 -0.151263 0.177957 
-0.033156 -0.166520 0.272730 
-0.242166 0.376233 -0.039357 
-0.220091 0.140716 -0.141391 
-0.072484 0.459910 -0.075416 
0.084165 -0.181375 0.341918 
-0.274740 0.247635 -0.233481 
0.130050 -0.022630 -0.157122 
-0.070396 -0.221249 0.279352 
-0.081580 0.518648 -0.118457 
0.218802 -0.406529 -0.004401 
0.025343 0.207533 -0.212823 
0.180630 -0.080598 -0.120763 
0.004717 -0.050828 0.222936 
-0.177627 0.304537 -0.303063 
-0.223546 0.149815 0.093761 
-0.218470 0.214869 -0.273804 
0.245994 -0.156239 -0.052759 
0.237448 -0.159696 -0.061985 
0.221135 -0.321578 0.151456 
-0.003015 0.369594 -0.019725 
0.287094 -0.106655 0.056548 
0.015022 -0.058977 -0.196816 
-0.012696 -0.410526 0.147357 
0.069764 -0.405032 -0.033360 
-0.278542 0.279243 -0.095528 
0.185373 -0.184127 -0.125654 
-0.012377 -0.056561 0.224736 
0.136883 0.130926 -0.066445 
-0.118866 -0.177873 -0.092390 
0.321031 -0.205303 0.117786 
-0.102662 0.528533 -0.130155 
-0.023483 -0.129038 0.249581 
-0.213960 0.169139 -0.282699 
0.094147 0.151613 -0.085647 
0.256166 -0.015436 0.192664 
-0.130743 -0.149746 -0.098284 
0.005981 -0.307995 0.350166 
-0.232701 0.510773 -0.118213 
-0.227346 0.052922 0.085261 
0.223852 -0.045393 0.046186 
0.057758 -0.283689 -0.134984 
0.051449 0.222188 -0.006219 
0.141993 -0.439771 -0.031092 
-0.084535 0.423194 -0.287557 
-0.185402 0.256676 -0.314925 
0.169284 0.006516 0.204100 
-0.045240 -0.286932 -0.096116 
0.263404 -0.236459 0.261781 
0.081695 -0.210642 0.362394 
0.148873 -0.121933 0.305539 
-0.014186 -0.042072 -0.198386 
0.155675 0.190321 0.077686 
-0.128782 -0.217908 0.174022 
0.088101 -0.175858 0.337615 
-0.122958 -0.108886 0.222296 
-0.120281 -0.064732 0.212566 
-0.103859 0.244589 0.056439 
0.277249 -0.089470 0.050920 
0.150431 0.007010 -0.128035 
-0.100028 -0.249635 0.017822 
-0.220983 0.497223 -0.195694 
-0.097954 0.394091 -0.309153 
-0.011224 0.307364 -0.205547 
