0.1323889648 0.0592506592 -0.6455410145
0.1406704646 0.0586231518 -0.6601989658
0.2015598759 0.0682786019 -0.7363419112
0.1961095566 0.0969406211 -0.7408541542
0.2018232087 0.0745574490 -0.7383115039
0.2040888628 0.1062396521 -0.7632777615
0.2189019094 0.0703324227 -0.7628889600
0.2143442729 0.0808920552 -0.7707321733
0.1932338039 0.0913902623 -0.7951549329
0.2002783339 0.0861745952 -0.7916635283
0.2041848342 0.0619963058 -0.7959599285
0.1681302783 0.1246953657 0.8520218139
0.1723710977 0.1169914279 0.8525756475
0.1805024053 0.1202925665 0.8476379506
0.1703213234 0.1493378732 0.8355006630
0.1866666776 0.1284659595 0.8348609872
0.1708728294 0.1540237938 0.8224617862
0.1784757300 0.1433877478 0.8160506965
0.1935084651 0.1242493531 0.8181405378
0.1785361520 0.1373541105 0.8045134317
0.1879577412 0.1293920474 0.8109105340
0.1821152464 0.1317593123 0.8034365871
0.1727287633 0.1286946574 0.7934423302
0.1667300797 0.1406117237 0.7953730840
0.1792872225 0.1103251921 0.7899271959
0.0786095147 0.0809630488 -0.3808903058
0.0712255754 0.0882783812 -0.3753934233
0.0805527141 0.0818042093 -0.3731233340
0.0832224353 0.0917207866 -0.3332725010
0.0794804110 0.0837375498 -0.3694245413
0.0951255442 0.0613198668 0.5977296303
0.0892169635 0.0859728575 0.6410099097
0.1025357617 0.0623355494 0.6249788703
0.0946391199 0.0749860056 0.6310016210
0.1028265093 0.0688428054 0.6425588888
0.0850210169 0.0647521525 0.5506545988
0.0821143908 0.0673886163 0.5447100832
0.0965991583 0.0566800229 0.5869794768
0.0900078859 0.0649589968 0.5853595692
0.1269051377 0.0929188447 0.3061637891
0.1421289744 0.0867100679 0.2897582119
0.1051606472 0.1024732148 0.3287702279
0.1042697834 0.1031436549 0.3293606105
0.1356219745 0.0843527202 0.3028033353
0.1283425361 0.0838174848 0.3148671093
0.1281062268 0.0769792332 0.3234719094
0.1733575415 0.1311387250 0.2185011282
0.1667677702 0.1439429846 0.2154729118
0.1584831214 0.1546978719 0.2155015748
0.1535604932 0.1373420866 0.2325672224
0.1719112976 0.1324332321 0.2189246718
0.1770688774 0.1211788602 0.2221797136
0.1535084162 0.1297810433 0.2380441484
0.1764014260 0.1135987490 0.2282457582
0.1601277479 0.1178305272 0.2404311695
0.1679312252 0.1138734315 -0.1808568397
0.1506515422 0.1283904030 -0.1866047472
0.1654325992 0.1261205211 -0.1743965000
0.1593484566 0.1185383275 -0.1855408976
0.1906927513 0.1274853448 -0.1497668460
0.1768701263 0.1357658676 -0.1567581062
0.1892649148 0.1172085364 -0.1584875980
0.1988594898 0.1174433203 -0.1493363503
0.1819417839 0.1136163509 -0.1679246215
0.1060682220 0.0694156112 -0.3241787368
0.1016442873 0.0768310056 -0.3214432193
0.1053100450 0.0882910985 -0.2944333806
0.1122600194 0.0735242364 -0.3039312349
0.1044745160 0.0975817778 -0.2807963245
0.1282118789 0.0909148472 -0.6695381425
0.1209841681 0.1069061452 -0.6774522086
0.1228649005 0.1013639454 -0.6737298106
0.1391692092 0.0870760755 -0.6821106846
0.1281087389 0.0754437318 -0.6507528847
0.1317433267 0.0887869898 -0.6725178466
0.1158080494 0.0846868379 -0.6425781872
0.1749122616 0.1133398237 -0.7344495805
0.1760005607 0.1272984543 -0.7400045798
0.1664004590 0.1471358705 -0.7445487473
0.1841333160 0.1244325438 -0.7448787573
0.1831189265 0.1350230303 -0.7551068754
0.1771265607 0.1397651977 -0.7505630413
0.1962919559 0.1209837243 -0.7650201492
0.1687588254 0.1555232736 -0.7735154938
0.1778361750 0.1450246595 -0.7673172851
0.1644227419 0.1590985620 -0.7776307342
0.1831115165 0.1241115277 -0.7887547086
0.1745619215 0.1383350442 -0.7862892820
0.1615325823 0.1386044890 -0.7958622139
0.1673009833 0.1397182581 -0.7917995030
0.1624156953 0.1336442311 -0.7968387605
0.1200639422 0.1802795776 0.8478300385
0.1389462877 0.1643365790 0.8487239227
0.1167279723 0.1878023845 0.8444735524
0.1199853552 0.1944224398 0.8322885742
0.1452832701 0.1721226006 0.8378591580
0.1544861520 0.1705423522 0.8217731559
0.1158876874 0.1999832719 0.8191002806
0.1593965975 0.1664071758 0.8179020807
0.1209784185 0.1923991917 0.8071799904
0.1430925284 0.1765558295 0.8093647534
0.1389201353 0.1767886367 0.8036972166
0.1292398300 0.1733578579 0.7941407539
0.1509902468 0.1582572409 0.7951150212
0.0685637127 0.0922857426 0.6070470316
0.0616425721 0.1052262237 0.6324154959
0.0675287150 0.1015306623 0.6351444993
0.0736375150 0.0996996991 0.6446629515
0.0796250002 0.0823643256 0.6022801418
0.1165549738 0.1493375542 -0.7227950706
0.1054413173 0.1446382544 -0.7069747276
0.1013271889 0.1574798073 -0.7185551286
0.0953060082 0.1603142846 -0.7164181850
0.1135945926 0.1302076178 -0.6971998953
0.1101457399 0.1398859142 -0.7056093059
0.1117719929 0.1295399603 -0.6947284941
0.1442266420 0.1646298010 -0.7410495921
0.1474904724 0.1602164890 -0.7398779018
0.1369384625 0.1738338789 -0.7442355592
0.1483702540 0.1733969892 -0.7562851419
0.1529177303 0.1690980537 -0.7547197201
0.1448560445 0.1775486875 -0.7630020245
0.1469146808 0.1751417001 -0.7743178142
0.1498142592 0.1736724903 -0.7697208606
0.1186495101 0.1930442886 -0.7821417203
0.1428281842 0.1779397485 -0.7754633961
0.1174028664 0.1929299108 -0.7838015010
0.1264198822 0.1735550412 -0.7941680176
0.1445518481 0.1591584785 -0.7944653412
0.1008888095 0.1831641071 0.8525749055
0.1050615987 0.1992291840 0.8388334611
0.0949149414 0.1983709703 0.8449795961
0.1071717498 0.1989858377 0.8380337171
0.0773363325 0.2161561605 0.8215799276
0.1014001399 0.2053035622 0.8278090288
0.0845870488 0.2122632604 0.8140420700
0.0712010718 0.2150155856 0.8064159098
0.0900630583 0.2090605115 0.8105985261
0.0663583813 0.2106174168 0.7974250537
0.0979971605 0.2023798409 0.8033382493
0.0406568105 0.1433889219 0.7068194647
0.0485204215 0.1425599355 0.7112558702
0.0458396160 0.1490642689 0.7211039362
0.0792780038 0.1402156901 0.7302357644
0.0543313939 0.1572930965 0.7425498889
0.0719499139 0.1337970123 0.7129787716
0.0298389135 0.1072668245 0.4479006952
0.0350640633 0.1028385785 0.4657573818
0.0537199812 0.0955614665 0.4621860238
0.0491455704 0.0970994706 0.4650051761
0.0511565481 0.0984402841 0.4478896466
0.0095889244 0.1052731531 0.5111813558
0.0119826577 0.1049603184 0.5169145907
0.0253976172 0.1031887946 0.5175192387
0.0240278186 0.1033697732 0.5392766091
0.0003825821 0.1649654253 -0.6829020877
0.0182187771 0.1632592712 -0.6841683237
0.0103256197 0.1613276457 -0.6783434972
0.0402237685 0.1539941996 -0.6716906767
0.0246900607 0.1453596670 -0.6507539072
0.0311792597 0.1551703078 -0.6716654769
0.0008799016 0.2241685656 -0.7458742374
0.0492629766 0.2156886160 -0.7431202052
0.0152205085 0.2273114663 -0.7553493311
0.0310444463 0.2234127310 -0.7509739063
0.0461737750 0.2217939304 -0.7804395621
0.0054965191 0.2249252512 -0.7846598754
0.0549808063 0.2150852626 -0.7889968947
-0.0342495899 0.2219000986 0.8383607095
-0.0307523865 0.2251804209 0.8317875165
-0.0256268329 0.2234167893 0.8376570713
-0.0556290655 0.2200501273 0.8056467269
-0.0157541914 0.2271315797 0.8100679678
-0.0288454455 0.2224110338 0.8032755742
-0.0164087957 0.1042942813 0.4933011323
-0.0227886938 0.1034559603 0.5208075552
-0.0062075152 0.1056354626 0.5037044609
-0.0191980273 0.1039290429 0.5302250920
-0.0099233267 0.1208699749 0.3969752733
-0.0024586651 0.1242152628 0.3871536143
-0.0301377339 0.1151605782 0.4096371840
-0.0023809847 0.1144435578 0.4278542983
-0.0164788137 0.1146520903 0.4192469646
-0.0313970017 0.1456499153 -0.6531915906
-0.0320636974 0.1557728292 -0.6732131607
-0.0201080703 0.1609949316 -0.6803622155
-0.0324633726 0.1436965508 -0.6496370505
-0.0100120429 0.1518568961 -0.6598444877
-0.0258725967 0.1469433164 -0.6542998812
-0.0146241205 0.1430760168 -0.6438259138
-0.0394533649 0.2194514520 -0.7464391694
-0.0428339725 0.2222551314 -0.7521026531
-0.0032895895 0.2279567046 -0.7532994747
-0.0244374199 0.2234765419 -0.7831003946
-0.0313194222 0.2249289822 -0.7774110310
-0.0192309973 0.2226806758 -0.7851293399
-0.0890194250 0.1982292179 0.8467602681
-0.0970972555 0.1905062331 0.8498914591
-0.0641535085 0.2170307493 0.8369904012
-0.0967934895 0.2076256373 0.8232239800
-0.0712793582 0.2174528818 0.8284984710
-0.0968893557 0.2069439423 0.8141331714
-0.1051966314 0.1998349071 0.8044711496
-0.0923167575 0.2082643009 0.8114347670
-0.0945286367 0.1930427642 0.7930591978
-0.0641377833 0.2083906667 0.7950327532
-0.0393256084 0.1079609838 0.6076226401
-0.0480765281 0.1075367226 0.6200014485
-0.0401067484 0.1105805356 0.6190139771
-0.0401297385 0.1138904144 0.6318613301
-0.0389671822 0.1135989363 0.6288704769
-0.0467731778 0.0971388413 0.4705785994
-0.0496879510 0.0974358489 0.4587379770
-0.0353396089 0.0998315230 0.4867082543
-0.0282030846 0.1048880694 0.4701639024
-0.0512536586 0.0929373946 -0.4377441204
-0.0411042229 0.0971444723 -0.4602643616
-0.0278747426 0.1026282699 -0.4707973932
-0.0289541941 0.1021808227 -0.4679013415
-0.0533717181 0.0983793733 -0.5366194352
-0.0327069749 0.1072069056 -0.5387838345
-0.0451442998 0.1015280446 -0.5346093227
-0.0301103559 0.1030352484 -0.4975116855
-0.0375915144 0.1015676170 -0.5103631283
-0.1070580510 0.1889865118 -0.7390799256
-0.0823586444 0.1964868226 -0.7371271291
-0.0608848494 0.2188904582 -0.7512484098
-0.0739411495 0.2172247925 -0.7648026029
-0.0681612459 0.2191175178 -0.7612503570
-0.1099047267 0.2023712107 -0.7671526424
-0.0810313227 0.2100772331 -0.7821143198
-0.0866627110 0.2107999769 -0.7752418580
-0.0771264681 0.1980640114 -0.7956056523
-0.1471241006 0.1572683563 0.8489443946
-0.1168456797 0.1846345728 0.8464062357
-0.1179606950 0.1921417362 0.8385031304
-0.1136625103 0.1919251535 0.8421733580
-0.1195966827 0.1941979540 0.8324589191
-0.1392445696 0.1776974425 0.8067008666
-0.1247858771 0.1895278515 0.8081226310
-0.1448777080 0.1676003824 0.7993360963
-0.1540015454 0.1561989412 0.7955410854
-0.1183420811 0.1840080387 0.7958125631
-0.0767931220 0.0867166185 0.6109765138
-0.0732968200 0.0854882163 0.5979574001
-0.0679219671 0.0976846522 0.6248143413
-0.0665972543 0.0949947501 0.6124935352
-0.0701751423 0.1005302825 0.6400224578
-0.0894806642 0.0962316834 0.3660301121
-0.0840931771 0.1008214802 0.3650407251
-0.0892705711 0.1052493455 0.3468427504
-0.0672823875 0.1101990600 0.3726888769
-0.0723089044 0.1196605362 0.3438152969
-0.0641784877 0.0856898751 -0.4202425034
-0.0631435834 0.0864669912 -0.4203552140
-0.0694942644 0.0867127003 -0.3857267370
-0.0612107314 0.0885295621 -0.4164291034
-0.0567240941 0.0927217611 -0.4113530525
-0.0737810950 0.0762790068 -0.4628084992
-0.0741595068 0.0759887670 -0.4560027241
-0.0597407117 0.0870479036 -0.4695783952
-0.0574355690 0.0888159354 -0.4458450858
-0.0722096506 0.0804719294 -0.5071578280
-0.0747293380 0.0781665103 -0.5046469423
-0.0750180705 0.0779108818 -0.5044168681
-0.0576547192 0.0955422872 -0.5334822055
-0.0601006072 0.0909670641 -0.5152912280
-0.1511396612 0.1539182261 -0.7379980708
-0.1559959032 0.1606391701 -0.7461800099
-0.1122675465 0.1930711430 -0.7450079078
-0.1350042159 0.1821323944 -0.7541798612
-0.1520412450 0.1673145092 -0.7814999345
-0.1280558562 0.1883067535 -0.7765010579
-0.1381827858 0.1713502738 -0.7892152534
-0.1503584936 0.1671726190 -0.7838312773
-0.1422717454 0.1650865494 -0.7916308940
-0.1870943705 0.1270094307 0.8351029312
-0.1681426609 0.1499067829 0.8377744725
-0.1774375087 0.1429137596 0.8117153458
-0.0832002315 0.0647102708 0.4917806017
-0.0762118562 0.0738122067 0.4910322824
-0.0918332281 0.0534663151 0.5363248339
-0.0804267624 0.0683225463 0.5168761420
-0.0811711791 0.0673529888 0.5379017195
-0.1329479721 0.0862861863 -0.2487021960
-0.1087935434 0.0918853438 -0.2798829713
-0.1294410662 0.0827571042 -0.2584581167
-0.1299655664 0.0918061588 -0.2467356813
-0.1112017630 0.1047930557 -0.2605522061
-0.1182716428 0.1014189664 -0.2535158013
-0.0972090225 0.0793309654 -0.3256680655
-0.0972604202 0.0780026636 -0.3277661959
-0.1016077217 0.0716946222 -0.3288346169
-0.1065865277 0.0809596820 -0.3026300647
-0.1031399590 0.0887063917 -0.2972215181
-0.1094618832 0.0802300704 -0.2976107335
-0.0828235846 0.0767975915 -0.3777376051
-0.1055523008 0.0622959775 -0.3390623840
-0.0964281959 0.0721504907 -0.3442732197
-0.0955754244 0.0760381410 -0.3371721189
-0.0918673341 0.0763331368 -0.3487786085
-0.0933288309 0.0594071325 -0.5279023692
-0.0882024912 0.0665633649 -0.5303574380
-0.0803454607 0.0757060038 -0.5246764613
-0.0908847809 0.0552061399 -0.4896292480
-0.1888501590 0.1256085255 -0.7533147138
-0.1625025736 0.1587170457 -0.7514884552
-0.1939309021 0.1165299680 -0.7826343087
-0.2053905357 0.0744372268 0.8458779777
-0.2033146575 0.0639169115 0.8504774244
-0.2163689706 0.0702551586 0.8325546021
-0.2156337749 0.0775068156 0.8223455442
-0.2082833558 0.0939106794 0.8262964162
-0.2218208608 0.0612644623 0.8157511074
-0.2157802282 0.0768511537 0.8186715288
-0.2072677617 0.0927065709 0.8097984639
-0.1027740726 0.0352458475 0.5678845761
-0.1013192959 0.0317858984 0.5451975068
-0.1072072090 0.0320411180 0.5922852769
-0.0961005207 0.0499189686 0.5632195740
-0.0974446421 0.0478040963 0.5668957605
-0.1000114935 0.0339315373 0.5089413056
-0.1019440976 0.0292442512 0.4914304931
-0.0950563344 0.0459096921 0.5345680583
-0.0950015901 0.0460418510 0.5201039204
-0.1473447603 0.0444803683 -0.2582822707
-0.1403431040 0.0489793900 -0.2676741288
-0.1418441144 0.0449332105 -0.2679970141
-0.1507040105 0.0578873226 -0.2419805944
-0.1552180335 0.0486412733 -0.2407317834
-0.1342828837 0.0742245050 -0.2596243654
-0.1451631835 0.0638098445 -0.2476234359
-0.0949885358 0.0469864323 -0.4309802017
-0.1011046085 0.0369435778 -0.4156062235
-0.1005298119 0.0471600481 -0.3868004088
-0.1042127556 0.0379753577 -0.3877940408
-0.1045744971 0.0340771783 -0.5233166907
-0.1027460522 0.0335101092 -0.5070990167
-0.1006262914 0.0389171006 -0.5080528733
-0.0949371451 0.0539056858 -0.5121411897
-0.0953477398 0.0551046103 -0.5192792867
-0.1145300212 0.0382825674 -0.5769052447
-0.1141114186 0.0378681182 -0.5746166168
-0.1053956991 0.0599055395 -0.5762227259
-0.1072046243 0.0440863968 -0.5578269989
-0.1076982678 0.0383682139 -0.5505566300
-0.1988299716 0.0796763528 -0.7380905096
-0.2132323383 0.0762124332 -0.7530477952
-0.2046446166 0.0927781955 -0.7491714175
-0.2097064298 0.0914551418 -0.7636855591
-0.2096223373 0.0896013120 -0.7746462045
-0.2020784449 0.1082115082 -0.7735002720
-0.2061264690 0.0907515933 -0.7816942725
-0.2059208318 0.0950693906 -0.7781395458
-0.2110602984 0.0351957252 0.8492843796
-0.2219601592 0.0273153742 0.8392595370
-0.2193066582 0.0144775429 0.8449360264
-0.2207568547 0.0566239862 0.8338366356
-0.2265099397 0.0061965100 0.8059325852
-0.2225916624 0.0550232093 0.8119903786
-0.2213134865 0.0056263761 0.7980605054
-0.2136054753 0.0070741242 0.7917217778
-0.2119568732 0.0406705535 0.7938542511
-0.1059943954 0.0141154546 -0.4208702661
-0.1080356075 0.0036133802 -0.4152941414
-0.1075524985 0.0163414114 -0.4052468506
-0.1094979099 0.0180223338 -0.3869667915
-0.1102685183 0.0000884033 -0.5206081472
-0.1085741990 0.0235261161 -0.5322952107
-0.1068098848 0.0017230404 -0.4932160147
-0.1067098882 0.0230201253 -0.5159999773
-0.1074243855 0.0276864550 -0.5272066905
-0.1491661162 0.0023653546 -0.6529292342
-0.1504875282 0.0027611834 -0.6556208248
-0.1613247555 0.0037684300 -0.6771168645
-0.1437205364 0.0111383299 -0.6445181052
-0.1470475991 0.0274303162 -0.6552405254
-0.1447241327 0.0196778602 -0.6486865540
-0.2160392664 0.0150522192 -0.7396048543
-0.2133402482 0.0528795626 -0.7413584157
-0.2232596372 0.0083980409 -0.7462855678
-0.2162327751 0.0381916991 -0.7422364986
-0.2217777033 0.0481786060 -0.7530514260
-0.2271605068 0.0079961984 -0.7790380412
-0.2222394209 0.0519193259 -0.7769582569
-0.2236000592 0.0190175268 -0.7837529867
-0.2172147734 0.0038839278 -0.7929334059
-0.2128180974 0.0469904116 -0.7919479952
-0.2113012520 -0.0473977536 0.8478856716
-0.2223646606 -0.0301668404 0.8382734883
-0.2212657427 -0.0020448030 0.8445507163
-0.2259069258 -0.0296696069 0.8300416098
-0.2207351710 -0.0562881758 0.8078502366
-0.2254656061 -0.0313231027 0.8113342475
-0.1114286572 -0.0298525497 0.6061264643
-0.1157564653 -0.0208244294 0.6191986330
-0.1182353827 -0.0055965954 0.6211665332
-0.1210582209 -0.0213128530 0.6415052356
-0.1229649414 -0.0047486875 0.6403525919
-0.1059998983 -0.0200635322 -0.4144453566
-0.1068412612 -0.0286217051 -0.3978436364
-0.1101730342 -0.0172697292 -0.3823119987
-0.1105872972 -0.0079519569 -0.3891543893
-0.1085936522 -0.0072226554 -0.4067982825
-0.1085469745 -0.0156145016 -0.5230815360
-0.1123235982 -0.0008419402 -0.5385780810
-0.1040876803 -0.0226376637 -0.4932324138
-0.1111178569 -0.0026205722 -0.5303716842
-0.2205709605 -0.0384535452 -0.7479094227
-0.2250388095 -0.0003909983 -0.7471995038
-0.2248590550 -0.0151706485 -0.7499391174
-0.2226580807 -0.0406932131 -0.7795726284
-0.2243935721 -0.0319887071 -0.7781494819
-0.2187334760 -0.0239264421 -0.7892995154
-0.2103535662 -0.0315297037 -0.7954200822
-0.2140704794 -0.0364299097 -0.7920749513
-0.2000314993 -0.1124197271 0.8302188738
-0.2053044665 -0.1024056882 0.8230642281
-0.2097678740 -0.0893895258 0.8295973812
-0.2035591459 -0.1050176908 0.8141575354
-0.2136953950 -0.0828432205 0.8208914337
-0.2022278288 -0.1026964846 0.8075824239
-0.0988112058 -0.0474828851 0.5760014610
-0.1007001433 -0.0334360199 0.5450651617
-0.0985718521 -0.0410155181 0.5530270822
-0.1075262097 -0.0320018095 0.5940274570
-0.1031197494 -0.0382888663 0.5798970129
-0.0951257865 -0.0459271217 0.5244499925
-0.0930580812 -0.0509211375 0.5169473323
-0.0998072930 -0.0346288382 0.5299584952
-0.0972208689 -0.0408644042 0.5195259579
-0.1069663236 -0.0318929389 -0.5343509174
-0.0971150641 -0.0519520987 -0.5222884130
-0.0985588215 -0.0531823337 -0.5376755919
-0.1008568935 -0.0326339616 -0.4887421056
-0.1019183307 -0.0357760567 -0.5073154307
-0.1089359516 -0.0449403693 -0.5656320794
-0.1152147205 -0.0383322593 -0.5793562747
-0.1152554954 -0.0346796284 -0.5736395235
-0.1127614841 -0.0354198665 -0.5651565452
-0.1042716048 -0.0411202269 -0.5413961560
-0.1256118964 -0.0577149350 -0.6299035969
-0.1323256678 -0.0428336351 -0.6313018885
-0.1281406428 -0.0538229223 -0.6322190529
-0.1138929678 -0.0490374918 -0.5912759032
-0.1281119424 -0.0419307161 -0.6197277717
-0.2159550637 -0.0731247219 -0.7561260778
-0.2112276206 -0.0797959113 -0.7517039872
-0.2021424599 -0.1096669519 -0.7629429996
-0.2116090627 -0.0851229862 -0.7742624709
-0.2136223767 -0.0820509826 -0.7690317966
-0.1992189279 -0.1067235725 -0.7825361963
-0.2146693428 -0.0738307259 -0.7784282468
-0.1912676243 -0.1183687872 0.8392002210
-0.1689424290 -0.1525097810 0.8326743901
-0.1852489047 -0.1306894513 0.8335175778
-0.1676711924 -0.1550136505 0.8104943919
-0.1766265755 -0.1327809317 0.7989610354
-0.1794587672 -0.1305887914 0.8001598243
-0.1116241224 0.0213431231 0.6023870829
-0.1144002281 0.0009029430 0.6027670008
-0.1191609218 0.0127713809 0.6290297200
-0.1180183530 0.0248612199 0.6309043929
-0.1228752116 0.0057246836 0.6406157167
-0.1062510733 -0.1006032126 -0.2736122615
-0.1214508969 -0.0810731298 -0.2732668889
-0.1195725695 -0.0833047828 -0.2735285711
-0.1237667832 -0.0877752248 -0.2615567536
-0.1406606142 -0.0869480386 -0.2360320607
-0.1358191839 -0.0927802827 -0.2366068822
-0.1015552372 -0.0811554142 -0.3135462031
-0.0998000399 -0.0963879851 -0.2920205981
-0.0983078923 -0.0768875884 -0.3276802134
-0.1050907423 -0.0874856453 -0.2953567731
-0.1079381730 -0.0711374920 -0.3163705027
-0.1112543104 -0.0681815965 -0.3140962802
-0.0945126111 -0.0598375308 -0.5371933067
-0.0903368853 -0.0637966545 -0.5295041764
-0.0817498092 -0.0680665116 -0.4936094592
-0.0907390239 -0.0598656819 -0.5118240076
-0.1625128126 -0.1511062682 -0.7441107537
-0.1673758663 -0.1442122808 -0.7436673304
-0.1617881156 -0.1615467719 -0.7540100798
-0.1874371471 -0.1261343695 -0.7510704921
-0.1779776833 -0.1422169484 -0.7756778026
-0.1844984963 -0.1203695920 -0.7898618993
-0.1849678266 -0.1274621616 -0.7837063709
-0.1146233607 -0.1836423401 0.8481840866
-0.1242381878 -0.1916023071 0.8309776865
-0.1400945788 -0.1780130869 0.8337167530
-0.1187397526 -0.1933303381 0.8061223914
-0.1264823890 -0.1757629290 0.7944617189
-0.1507434945 -0.1588414406 0.7955063822
-0.0560902585 -0.0927681691 0.5602937732
-0.0556672168 -0.0953819005 0.5757135574
-0.0723350925 -0.0807571605 0.5633472731
-0.0721748047 -0.0803167547 0.5595430941
-0.0681782392 -0.0871514908 0.5849651860
-0.0566020121 -0.0965444256 -0.3874602592
-0.0576267820 -0.0959526854 -0.3861408077
-0.0629916857 -0.0923425637 -0.3827246084
-0.0668112846 -0.0869730785 -0.3991987095
-0.0703708507 -0.0790927674 -0.4849840682
-0.0534111049 -0.0921007992 -0.4350500627
-0.0734123490 -0.0767565832 -0.4728407379
-0.0652660944 -0.0830029991 -0.4481341189
-0.0545095432 -0.0920492787 -0.4923565984
-0.0624204612 -0.0887769711 -0.5112378706
-0.0667157631 -0.0861216480 -0.5155707246
-0.0753081022 -0.0801329251 -0.5196404798
-0.0748176360 -0.0798821191 -0.5154031395
-0.1371139361 -0.1682242612 -0.7400543565
-0.1400330537 -0.1650816122 -0.7394998253
-0.1276598317 -0.1860484792 -0.7504806850
-0.1445269896 -0.1735562213 -0.7809651331
-0.1401086098 -0.1791377342 -0.7767310357
-0.1532585363 -0.1572002548 -0.7914183301
-0.0800495468 -0.2034823513 0.8458021417
-0.0744896230 -0.2009258458 0.8492788376
-0.0606392947 -0.2170516052 0.8394871938
-0.1026550407 -0.2042946079 0.8302205491
-0.1021456306 -0.2016270382 0.8366856690
-0.0874714337 -0.2119178076 0.8215212311
-0.1037096534 -0.2041313763 0.8290964630
-0.1056693126 -0.2036209268 0.8149702543
-0.0788076473 -0.2123318315 0.8075481233
-0.0959577966 -0.2054794528 0.8081150937
-0.0833345490 -0.2056604439 0.7999906570
-0.0683878700 -0.2015292223 0.7912417764
-0.1072177000 -0.1929650576 0.7966223453
-0.0550513727 -0.1652167627 0.7540740132
-0.0692051421 -0.1618662442 0.7575707638
-0.0570030280 -0.1645080983 0.7542127134
-0.0709230467 -0.1666464095 0.7652185129
-0.0891618194 -0.1690768918 0.7791271893
-0.0800019100 -0.1617030885 0.7635725675
-0.0710652741 -0.1680198871 0.7672133922
-0.0329447045 -0.1007248244 0.5104096609
-0.0376133818 -0.0987895949 0.5031799906
-0.0367853060 -0.0991328434 0.4903318784
-0.0444413103 -0.0959593266 0.5180251878
-0.0511029563 -0.0931979847 0.5260206000
-0.0360595514 -0.0994336785 -0.4844527860
-0.0356219386 -0.0996150749 -0.4681554522
-0.0459293874 -0.0953424986 -0.4708676541
-0.0476709521 -0.0946205966 -0.4365885267
-0.0323627075 -0.1035616119 -0.5074162300
-0.0378012372 -0.1015659856 -0.5094230178
-0.0465570635 -0.0989851665 -0.5176407989
-0.0555193382 -0.0977129956 -0.5368074218
-0.0525742853 -0.0940141832 -0.4982077893
-0.0766277414 -0.1989470094 -0.7370470813
-0.0716267788 -0.2093855778 -0.7438289734
-0.1090531609 -0.1957561058 -0.7461056802
-0.0766097900 -0.2132428423 -0.7527518301
-0.0952260561 -0.2086345283 -0.7650638075
-0.1058363106 -0.2034204238 -0.7592251243
-0.1057539611 -0.2032617012 -0.7744515199
-0.0955811011 -0.2079585011 -0.7709983204
-0.1056934673 -0.2030862576 -0.7753053244
-0.0864149249 -0.2040124056 -0.7875668592
-0.1089606386 -0.1947161858 -0.7875148598
-0.1043169697 -0.1892127460 -0.7940225857
-0.0181846572 -0.2170509373 0.8466784388
-0.0466712269 -0.2127463199 0.8471072416
-0.0132379007 -0.2238576719 0.8396716623
-0.0335440450 -0.2248854113 0.8320862339
-0.0330723584 -0.2243680907 0.8334804750
-0.0232110082 -0.2277685261 0.8253157283
-0.0434210810 -0.2251536940 0.8249446997
-0.0395728043 -0.2255172324 0.8158248110
-0.0309303699 -0.2233388586 0.8052584799
-0.0400454549 -0.2226229038 0.8064248072
-0.0062615191 -0.2243913647 0.8017234650
-0.0171264799 -0.2140812798 0.7928331527
-0.0433653919 -0.2118023004 0.7937313410
-0.0025649520 -0.1852022188 0.7694052008
-0.0181831587 -0.1811400496 0.7664032055
-0.0135879595 -0.1805065781 0.7645546192
-0.0358807968 -0.1820060890 0.7711776508
-0.0398310845 -0.1891721380 0.7826629807
-0.0349116693 -0.1791106389 0.7666603050
-0.0437704073 -0.1760446414 0.7638210211
-0.0259903931 -0.1427100425 0.7005283781
-0.0100911323 -0.1426967686 0.6963939300
-0.0002464091 -0.1599626626 0.7276844697
-0.0295413138 -0.1466434602 0.7091510172
-0.0243020298 -0.1580502447 0.7301403705
-0.0172931574 -0.1564987276 0.7252981298
-0.0394257249 -0.1509870852 0.7202011166
-0.0046014409 -0.1854110942 -0.2056895817
-0.0103367660 -0.1750658314 -0.2200366914
-0.0231695648 -0.1774381631 -0.2139640502
-0.0415837302 -0.1883718349 -0.1939770654
-0.0382708385 -0.1891908662 -0.1934042192
-0.0410124075 -0.1711318715 -0.2198851156
-0.0497353189 -0.1889093822 -0.1915668921
-0.0261931322 -0.1433816189 -0.2739748939
-0.0057936267 -0.1513362707 -0.2636337484
-0.0152965627 -0.1465908348 -0.2704903268
-0.0096063529 -0.1620061045 -0.2417256826
-0.0231549358 -0.1578625234 -0.2463584411
-0.0296023354 -0.1551828300 -0.2499513439
-0.0343574468 -0.1433942412 -0.2718451504
-0.0181546497 -0.1063008639 -0.4168830101
-0.0063944103 -0.1077013807 -0.4181055730
-0.0180894599 -0.1096753628 -0.3883929224
-0.0238537472 -0.1047058708 -0.4240194147
-0.0059576577 -0.1466234472 -0.6481634544
-0.0357809093 -0.1601484610 -0.6823709567
-0.0352350219 -0.1614746993 -0.6848309127
-0.0130739477 -0.1618351693 -0.6798263899
-0.0410122741 -0.1565926667 -0.6767535189
-0.0279598022 -0.1482687774 -0.6570714945
-0.0379168395 -0.1490322897 -0.6611401302
-0.0360878574 -0.2097529228 -0.7366358319
-0.0005605964 -0.2249232725 -0.7466438552
-0.0300209317 -0.2178818955 -0.7425189689
-0.0078742443 -0.2267894704 -0.7514651480
-0.0106903521 -0.2296482241 -0.7635257155
-0.0579690586 -0.2236543653 -0.7653661313
-0.0186893932 -0.2281060528 -0.7725189583
-0.0471351722 -0.2243627174 -0.7724903458
-0.0285821386 -0.2257918501 -0.7766796489
-0.0158211622 -0.2222742361 -0.7865034951
-0.0281615630 -0.2215431673 -0.7853402530
-0.0068708461 -0.2162975121 -0.7936019793
0.0484897700 -0.2127139050 0.8470060238
0.0004520077 -0.2209371690 0.8455446553
0.0472012935 -0.2189924764 0.8402863069
0.0199656027 -0.2271760610 0.8310605208
0.0102171693 -0.2257788897 0.8375125390
0.0525415290 -0.2239801966 0.8253241850
0.0349323292 -0.2259607551 0.8279375599
0.0068800234 -0.2300605817 0.8170553652
0.0555088581 -0.2214680789 0.8083750762
0.0075710101 -0.2274647986 0.8076124859
0.0322950430 -0.2183302216 0.7981892424
0.0355808507 -0.2122973406 0.7932691983
0.0275073269 -0.2166026217 0.7957577431
0.0433748318 -0.1739957772 0.7605717147
0.0473137975 -0.1844463737 0.7769628154
0.0460639866 -0.1757705947 0.7637523416
0.0452446638 -0.1892719431 0.7837667654
0.0143744882 -0.1897144715 0.7783559320
0.0118267714 -0.1852753477 0.7712231558
0.0122526228 -0.1749155196 0.7558302480
0.0138239354 -0.1437976495 0.6993646329
0.0123200855 -0.1423686587 0.6961781440
0.0253208181 -0.1504198631 0.7153010428
0.0024113216 -0.1578740278 0.7239995915
0.0048627517 -0.1541003104 0.7172361890
0.0291470824 -0.1582082966 0.7315432013
0.0361356687 -0.1622051732 0.7411761662
0.0166652947 -0.1250215939 0.6510212420
0.0276032490 -0.1329946859 0.6765073799
0.0028786769 -0.1390181693 0.6839854038
0.0041240749 -0.1270894599 0.6521601322
0.0032510404 -0.1324212887 0.6662723039
0.0335794619 -0.1791148684 -0.2095127629
0.0396561588 -0.1744769767 -0.2152565019
0.0273016314 -0.1666324814 -0.2294259281
0.0410438251 -0.1759272356 -0.2128133407
0.0062431126 -0.1917428794 -0.1960071941
0.0015681996 -0.1852199314 -0.2066856936
0.0373488159 -0.1873927338 -0.1963860569
0.0199333367 -0.1914421112 -0.1937598867
0.0225248551 -0.1409642421 -0.2798106512
0.0349423220 -0.1478796104 -0.2630450361
0.0270073514 -0.1489947702 -0.2629037024
0.0067882356 -0.1646339840 -0.2374471585
0.0122669252 -0.1624321338 -0.2403520072
0.0199850275 -0.1623563479 -0.2385096843
0.0130074881 -0.1075261390 -0.4128279564
0.0182684408 -0.1055142547 -0.4240038473
0.0120921626 -0.1113364413 -0.3816696461
0.0026043255 -0.1084988489 -0.4162079700
0.0098945745 -0.1097423368 -0.3975803841
0.0220116057 -0.1038305466 -0.4513042557
0.0237368163 -0.1036037089 -0.4798756600
0.0028469423 -0.1063503935 -0.4347599233
0.0011721830 -0.1065705976 -0.4682469366
0.0158643888 -0.1629878184 -0.6826615972
0.0358083150 -0.1448550329 -0.6522677596
0.0395809368 -0.1515873688 -0.6664322036
0.0246384972 -0.1537096506 -0.6667410676
0.0015513131 -0.1501644174 -0.6538232332
0.0209207392 -0.1459352528 -0.6505411072
0.0315372808 -0.1412003153 -0.6440028125
0.0244573605 -0.2127775715 -0.7377248888
0.0496957310 -0.2171639955 -0.7448588785
0.0104700838 -0.2211836697 -0.7433712901
-0.2224817321 -0.0230012908 0.8025430796
-0.2089598649 -0.0436968466 0.7918410048
-0.2154012305 -0.0093990427 0.7933145557
0.0319784680 -0.2249884052 -0.7545902361
0.0722770196 -0.2127792538 0.8391044180
0.0698872929 -0.2119014863 0.8413742836
0.0807061927 -0.2127063411 0.8322773368
0.0607742989 -0.2212469308 0.8316350432
0.0824523529 -0.2135668871 0.8262622022
0.1038862130 -0.2048262801 0.8166193663
0.1051275918 -0.2047191843 0.8195120859
0.1142978333 -0.1986383350 0.8092887750
0.0902761955 -0.2030919663 0.8000760993
0.0807905382 -0.2096975708 0.8033308703
0.0981097880 -0.1871728905 0.7903560341
0.0459895167 -0.1168870255 0.6493676065
0.0639081991 -0.1135491446 0.6596779926
0.0535455239 -0.1128049876 0.6469740504
0.0650190061 -0.1250706818 0.6898837942
0.0380139086 -0.1233547279 0.6573422595
0.0507240475 -0.1245889018 0.6737347526
0.0570976402 -0.1048898758 0.6225774803
0.0526026927 -0.1039631149 0.6117729484
0.0331769275 -0.1172655292 0.6321198917
0.0323583678 -0.1192904490 0.6386427050
0.0434685874 -0.1154923461 0.6417685665
0.0448625679 -0.0960177205 0.5041417215
0.0481094857 -0.0946718294 0.5225686562
0.0303264952 -0.1020431183 0.4974777190
0.0337478904 -0.1006249039 0.5414370521
0.0484860888 -0.0987157337 -0.4010134009
0.0477863174 -0.0976001304 -0.4120838645
0.0432738118 -0.1028014845 -0.3858154430
0.0385507840 -0.1046065863 -0.3870044709
0.0390019533 -0.1027088598 -0.4005028386
0.0525507699 -0.0928308573 -0.4846897912
0.0392699418 -0.0983359393 -0.4731309556
0.0416946507 -0.0973308648 -0.4520060098
0.0462645383 -0.0954365849 -0.4345356840
0.0457794922 -0.1014938026 -0.5330244059
0.0493451765 -0.0969798712 -0.5091769246
0.0552469600 -0.0972401653 -0.5303896839
0.0321661079 -0.1014699676 -0.4885087210
0.0290929211 -0.1040982455 -0.4991653124
0.0815563540 -0.2091889097 -0.7483019204
0.1045764991 -0.2032587922 -0.7558262472
0.0935410745 -0.2053287482 -0.7501912192
0.0941047360 -0.2089647262 -0.7624458247
0.0659896286 -0.2208407119 -0.7640835525
0.0858072299 -0.2125404699 -0.7688838554
0.0905550781 -0.2075755505 -0.7798386942
0.0888835073 -0.2097904229 -0.7764120436
0.0637195232 -0.2115381795 -0.7901291729
0.0881570263 -0.1849240487 -0.7992074118
0.0793408179 -0.1971168604 -0.7959095818
0.1409139821 -0.1641357701 0.8480411692
0.1529253379 -0.1688691922 0.8331985271
0.1402395266 -0.1779626632 0.8344361756
0.1439065980 -0.1781587574 0.8259945395
0.1442397911 -0.1776614641 0.8274713209
0.1432269991 -0.1790996784 0.8184311206
0.1464737817 -0.1729699395 0.8070605408
0.1249289189 -0.1903267762 0.8086520566
0.1373296113 -0.1691474315 0.7952443000
0.0814258494 -0.0880090071 -0.3508826765
0.0775945312 -0.0835376610 -0.3755663991
0.0786785067 -0.0827746725 -0.3753378592
0.0670816342 -0.1039087488 -0.3345872758
0.0675296589 -0.1000236607 -0.3463790388
0.0572197903 -0.0905422325 -0.4277817606
0.0697711624 -0.0826440131 -0.4160427700
0.0587264377 -0.0942707285 -0.3947357454
0.0683348373 -0.0862800347 -0.3989262799
0.0625725800 -0.0920317831 -0.3899201368
0.0710980769 -0.0949384190 -0.5668328414
0.0686873415 -0.1030864217 -0.5877844298
0.0667139189 -0.0934874130 -0.5507955059
0.0686627042 -0.0924240213 -0.5522373651
0.0746084262 -0.0873980805 -0.5507059244
0.0857112591 -0.0995969315 -0.6096553610
0.0810314415 -0.1160057183 -0.6374179007
0.0931124393 -0.0971316205 -0.6166133362
0.0852942752 -0.0959595261 -0.6010845719
0.0752715744 -0.1015468528 -0.5965289720
0.1430343568 -0.1653441924 -0.7408053994
0.1193399598 -0.1833676995 -0.7407101914
0.1255492496 -0.1899139478 -0.7539782425
0.1363105249 -0.1846723353 -0.7652752820
0.1305359417 -0.1886019478 -0.7622342551
0.1599059022 -0.1662067175 -0.7692549280
0.1249858143 -0.1929452331 -0.7695758906
0.1405135468 -0.1791126620 -0.7770153874
0.1086589006 -0.0760290986 0.6679690714
0.0980745935 -0.0840631389 0.6584012713
0.1013743582 -0.0780024321 0.6554773021
0.0975912393 -0.0884702708 0.6646736144
0.0988718934 -0.0899557978 0.6699125693
0.1025055053 -0.0958800097 0.6876155947
0.0950987895 -0.0620329245 0.5989953983
0.1025285604 -0.0628414337 0.6257570456
0.0834936336 -0.0803188227 0.6070537552
0.0872912741 -0.0810279558 0.6214897115
0.0890095031 -0.0802235522 0.6251504346
0.0869327212 -0.0607705829 0.5174096550
0.0866064084 -0.0611916489 0.5055090341
0.0799515824 -0.0698617531 0.5125106489
0.0817366218 -0.0675431592 0.5317469327
0.0888566974 -0.0683353002 0.4368118430
0.0924384844 -0.0596441609 0.4576801828
0.0773456290 -0.0744963640 0.4825835771
0.0812878358 -0.0708355452 0.4749432792
0.0902993134 -0.0570006982 0.4858170648
0.1644422429 -0.1209763749 -0.1791628015
0.1716269838 -0.1027196563 -0.1855533142
0.1528539669 -0.1252290568 -0.1869566225
0.1653543805 -0.1108918416 -0.1855543623
0.1710265092 -0.1282759316 -0.1677537546
0.1529001922 -0.1471762175 -0.1711437884
0.1738807058 -0.1496524883 -0.1497212710
0.1739246459 -0.1430098863 -0.1544532023
0.1720155256 -0.1174042925 -0.7344736835
0.1699877409 -0.1149554493 -0.7331781611
0.1816865190 -0.1177371212 -0.7388995739
0.1770649427 -0.1349428922 -0.7457656032
0.1656845532 -0.1511951220 -0.7468967376
0.1933397856 -0.1225090335 -0.7560102947
0.1944339551 -0.1228849356 -0.7616869008
0.1847428504 -0.1346946821 -0.7578772039
0.1974098620 -0.1197729726 -0.7670660898
0.1639570522 -0.1625888855 -0.7706684422
0.1793109750 -0.1390500643 -0.7788847803
0.1909945382 -0.1173436370 -0.7861011999
0.1716457897 -0.1420207485 -0.7865413752
0.1725609694 -0.1250262460 -0.7955806474
0.1831997844 -0.1084059583 -0.7964191597
0.1663856069 -0.1289828304 -0.7967600128
0.1973205887 -0.0788832077 0.8507394881
0.2040671476 -0.0675367358 0.8493260705
0.1903606428 -0.1035818254 0.8484521633
0.2102871515 -0.0870410244 0.8320460001
0.2124944829 -0.0857259111 0.8250137278
0.2028726280 -0.1075770529 0.8290894021
0.2136902573 -0.0827159422 0.8165177794
0.2072794659 -0.0978927488 0.8156199217
0.2065301716 -0.0962999908 0.8100431890
0.1923146069 -0.0941698699 0.7920516050
0.1932448927 -0.0990600680 0.7941676453
0.1891578018 -0.0857882330 0.7891181817
0.1809817886 -0.0531013319 0.7744275577
0.1660490267 -0.0617404182 0.7586223166
0.1659453097 -0.0464936751 0.7496937764
0.1624047912 -0.0644905280 0.7551349234
0.1642182880 -0.0851188089 0.7695540056
0.1499651120 -0.0845372698 0.7493745427
0.1838155983 -0.0611466814 0.7830103199
0.1757533371 -0.0786283349 0.7818697342
0.1030412099 -0.0483032397 0.6009063611
0.1104893708 -0.0362774419 0.6104453836
0.1063541628 -0.0571705441 0.6279596160
0.1003102295 -0.0559385804 0.6025861471
0.1173347643 -0.0400263791 0.6429936145
0.1044786041 -0.0300653213 0.5593573595
0.1014858409 -0.0394379404 0.5663479457
0.0987162842 -0.0508996537 0.5819521893
0.0961619997 -0.0518542169 0.5649659016
0.0954846420 -0.0464152403 0.5010228849
0.0967819442 -0.0432724173 0.4909059952
0.0935443665 -0.0511068947 0.5212828823
0.0974217400 -0.0417501136 0.5308564150
0.0928714219 -0.0527236006 0.4978466943
0.1032197912 -0.0434167754 0.4379464318
0.1045149304 -0.0341149838 0.4580362426
0.0981357609 -0.0454437676 0.4713347749
0.0992021676 -0.0484079064 0.4533002117
0.1867233789 -0.0766282107 -0.1818564371
0.2022025817 -0.0601791580 -0.1724039313
0.1924668241 -0.0532353508 -0.1861516976
0.1932127338 -0.0528157875 -0.1855278349
0.2014864428 -0.1120976758 -0.1497475981
0.2060923482 -0.0934805096 -0.1531307800
0.1911879603 -0.0869249265 -0.1723416727
0.1970121965 -0.0810746826 -0.1686324183
0.1788675648 -0.0974757106 -0.1810118896
0.1778295225 -0.0503057128 -0.2073798879
0.1652293036 -0.0580353481 -0.2204833888
0.1627606755 -0.0439000650 -0.2320793390
0.1633976911 -0.0808954755 -0.2098470761
0.1726441677 -0.0907913857 -0.1912484252
0.1667344527 -0.0691536271 -0.2119709293
0.1562904083 -0.0891034054 -0.2150180445
0.1202510208 -0.0507177700 -0.3133505053
0.1222325176 -0.0376725497 -0.3219850438
0.1236884460 -0.0420199007 -0.3137678637
0.1291938087 -0.0544799219 -0.2868584191
0.1216129729 -0.0550064277 -0.3054332372
0.1215741067 -0.0648741269 -0.2952225205
0.0986488430 -0.0537796842 -0.5359160943
0.1038469736 -0.0345233949 -0.5140021780
0.0964929909 -0.0452645533 -0.4911580164
0.0981422507 -0.0541945131 -0.5332824302
0.0996840050 -0.0389153462 -0.4955752101
0.1469826764 -0.0535457364 -0.6677514190
0.1505911251 -0.0708410728 -0.6874287239
0.1478151634 -0.0423923029 -0.6608354552
0.1449762827 -0.0825544071 -0.6860290905
0.1430498899 -0.0684272028 -0.6718221070
0.1370132871 -0.0571889985 -0.6522886312
0.2002960883 -0.0783057258 -0.7940399474
0.2042771508 -0.0594212857 -0.7963676499
0.1902153393 -0.0840602631 -0.7978569317
0.2205795501 -0.0461281736 0.8385996622
0.2190040899 -0.0391656094 0.8418517975
0.2243161334 -0.0320786236 0.8344785296
0.2277071402 -0.0064008086 0.8074471204
0.2234388881 -0.0502966221 0.8111169692
0.2183760877 -0.0540709048 0.8017888794
0.1542436943 -0.0130949532 0.7193248571
0.1474775435 -0.0010276708 0.7029461136
0.1459271984 -0.0221516487 0.7053691445
0.1584744345 -0.0142233318 0.7279069862
0.1536348011 -0.0312897806 0.7228342765
0.1582858321 -0.0205527045 0.7291731297
0.1614320154 -0.0379335016 0.7398297875
0.1035765708 -0.0250821002 0.4921604510
0.1042155265 -0.0202452385 0.4935977431
0.1041511604 -0.0208288918 0.5405683219
0.1047426005 -0.0162731584 0.5180382754
0.1094313291 -0.0208933008 0.4443087134
0.1073397083 -0.0036819649 0.4811522837
0.1073469192 -0.0214023175 0.4613485984
0.1083885559 -0.0270130570 0.4463088659
0.1046018781 -0.0223768824 0.4834194679
0.1399838095 -0.0019704912 0.3450473887
0.1418251118 -0.0087797837 0.3376369047
0.1357218108 -0.0044159103 0.3557187571
0.1299058589 -0.0217014762 0.3653179413
0.1311252984 -0.0226609825 0.3616733445
0.1196712640 -0.0057100502 -0.3510378403
0.1148040728 -0.0032440282 -0.3726498740
0.1130264395 -0.0123481774 -0.3750691966
0.1199253743 -0.0187664961 -0.3428155586
0.1193355231 -0.0219331398 -0.3435336022
0.1078781599 -0.0102058592 -0.4143078917
0.1063960854 -0.0105193544 -0.4265063548
0.1089299050 -0.0202511988 -0.3942437105
0.1121084339 -0.0046234253 -0.3847494519
0.1086689383 -0.0158066298 -0.4013778373
0.1534251679 -0.0005733580 -0.6596394987
0.1648642720 -0.0017513515 -0.6823752796
0.1535195343 -0.0047956235 -0.6609165032
0.1437303015 -0.0228929495 -0.6464023414
0.1413718795 -0.0356469572 -0.6450772113
0.1576223811 -0.0407676254 -0.6782653851
0.2207408517 -0.0224220757 -0.7446375447
0.2182664301 -0.0257285737 -0.7419794637
0.2255558930 -0.0196441411 -0.7516600972
0.2255117113 -0.0245766296 -0.7791731375
0.2232756881 -0.0531495029 -0.7754810065
0.2232218558 -0.0139382693 -0.7859011942
0.1310000152 -0.1706720111 -0.7939029282
0.1308284344 -0.1719263223 -0.7932139846
0.1708339158 -0.1207981008 0.8521655921
0.1765816113 -0.1255787667 0.8476483208
0.1545769138 -0.1537265728 0.8479007467
0.1900850473 -0.1148028462 0.8438701097
0.1893295107 -0.1242252803 0.8362861729
0.1743784268 -0.1451054684 0.8342259421
0.1793572616 -0.1434733488 0.8210288906
0.1810533126 -0.1394967700 0.8292631892
0.1652592463 -0.1606295520 0.8152155124
0.1944594441 -0.1205001768 0.8099946126
0.1717677801 -0.1497578593 0.8095281519
0.1902354741 -0.1151832834 0.7984867755
0.1767525048 -0.1219854990 0.7926625388
0.1586504338 -0.1465013805 0.7930960239
0.1650116249 -0.1255448921 0.7890170340
0.0370905985 -0.2260146665 -0.7617550782
0.0015820091 -0.2311885685 -0.7655179138
0.0440470563 -0.2246324100 -0.7740982191
0.0036307895 -0.2304129060 -0.7706316973
0.0561462705 -0.2227952782 -0.7753295976
0.0454867001 -0.2180190922 -0.7870578021
0.0109773772 -0.2248160386 -0.7841196573
0.0079252552 -0.2141047808 -0.7952345836
0.2002770735 -0.0705716542 -0.7361813592
0.1945259725 -0.0668563446 -0.7333646586
0.2051328865 -0.0686031824 -0.7388582577
0.2086786695 -0.0901996300 -0.7543855911
0.1984447006 -0.1140584828 -0.7535947039
0.2229133701 -0.0618582706 -0.7658633677
0.2076248293 -0.0959185624 -0.7748102984
0.2099072186 -0.0924823799 -0.7687497228
-0.0869377452 -0.0626921148 0.5556953478
-0.0870296028 -0.0636145983 0.5610945742
-0.0955686195 -0.0578464192 0.5889127008
-0.0909158255 -0.0564528746 0.5502184587
-0.0926511729 -0.0613552252 0.5873867413
-0.1598720788 -0.0401820319 -0.6836265020
-0.1444929452 -0.0387882588 -0.6531106842
-0.1637534500 -0.0054121067 -0.6822462874
-0.1494574819 -0.0102224582 -0.6554712711
-0.1422794211 -0.0264719246 -0.6455913362
-0.1611032375 -0.0060464244 -0.6772157656
-0.2148159159 -0.0420047928 -0.7413707217
-0.2148416405 -0.0218046129 -0.7393488604
0.0669580164 0.0837387633 -0.4219426653
0.0601164393 0.0910893373 -0.4077117457
0.0614734558 0.0924392127 -0.3915336282
0.0707829000 0.0862064691 -0.3853801301
-0.1362509655 -0.0759500898 -0.2548710502
-0.1298529152 -0.0687778086 -0.2719999078
-0.1437397544 -0.0812841001 -0.2371416620
-0.1431427807 -0.0532711895 -0.2594582192
-0.1534891762 -0.0548441098 -0.2393465668
-0.1424213336 -0.0486673171 -0.2642656593
-0.1475136029 -0.0687598679 -0.2397303810
-0.0944926299 -0.0493874730 -0.4276520772
-0.1009633344 -0.0366983374 -0.4181267762
-0.1023059450 -0.0345356824 -0.4146154680
-0.1044626347 -0.0352715377 -0.3952464784
0.0383523072 0.1025662703 -0.4021562208
0.0294220181 0.1073156398 -0.3938915002
0.0391456501 0.1031764467 -0.3947600926
0.0426712317 0.1006086090 -0.4034870687
0.0461386731 0.0990265006 -0.4046390036
0.0404388144 0.0976533039 -0.4804109463
0.0467054171 0.0950557127 -0.4802053710
0.0462561193 0.0952419527 -0.4503052483
0.0492822023 0.0939876006 -0.4513527696
0.0338557375 0.1028759712 -0.5066120078
0.0383327754 0.1033027919 -0.5245508680
0.0380923996 0.0990767949 -0.4905562538
0.0475990598 0.0967392071 -0.5031344119
0.0360376205 0.1006450455 -0.4961783245
0.0788604059 0.1912859406 -0.7341509241
0.0599368855 0.2156091239 -0.7454648415
0.0998848356 0.1992379480 -0.7456749404
0.0813040122 0.2102267035 -0.7502591054
0.0607177986 0.2220044532 -0.7582114070
0.0982485946 0.2068679772 -0.7611421813
0.0659495759 0.2202871760 -0.7709362801
0.0922221913 0.2064650317 -0.7803467834
0.0915589993 0.2083698042 -0.7766727723
0.1008909467 0.1957565370 -0.7903540796
0.1062952738 0.1979554025 -0.7849688212
0.0212962704 0.2197304293 0.8435103329
0.0063385272 0.2268860189 0.8355995718
0.0143842484 0.2249609930 0.8376832419
0.0214851247 0.2244028212 0.8051221668
0.0328402595 0.2169798968 0.7967791761
0.0577683835 0.2148987284 0.7983427199
0.2098248661 -0.0821388713 -0.7828469956
0.3050384663 0.0471117930 0.8769378773
0.3068818919 0.0330931386 0.8590450311
0.3094978575 0.0131995686 0.9279305819
0.3063455864 0.0371715679 0.8879152499
0.3099704631 0.0096055560 0.8711820380
0.3096073734 0.0123667354 0.9145476131
0.3039450487 0.0554268788 0.8772082423
0.3099874370 0.0094764752 0.9292653266
0.3069281749 0.0327411715 0.8992488746
0.3110750539 0.0012055013 0.8887208683
0.3106946718 0.0040981840 0.9175737017
0.3030741069 0.0620501090 0.9151176799
0.3096562586 0.0119949800 0.9325009708
0.3090117644 0.0168961488 0.9275982943
0.3028590031 0.0636859033 0.9141263029
0.3029378392 0.0630863807 0.8996465222
0.3009392487 0.0782850129 0.9390652043
0.3013195210 0.0753931654 0.9367988225
0.3035099714 0.0587355009 0.9189804357
0.3016647549 0.0727677738 0.8704682111
0.3074619850 0.0286817190 0.9378802835
0.3020740687 0.0696550753 0.9150521304
0.1943865515 0.0228547251 0.8552664176
0.2003116520 0.0281951158 0.8543942099
0.2103453901 0.0293636398 0.8507727161
0.2150669504 0.0236706636 0.8478069416
0.2199685323 0.0069874714 0.8457335371
0.2276060449 0.0261549548 0.8251649565
0.2279412152 0.0191065976 0.8122488669
0.2260506747 0.0402266502 0.8189947200
0.2151759075 0.0205767914 0.7938610495
0.2047941177 0.0265958550 0.7886811221
0.2042120728 0.0394485385 0.7891393649
0.1996503964 0.0218763874 0.7873239221
0.1844521152 0.0172539483 0.7708510733
0.1806890696 0.0021162008 0.7622529900
0.1951747752 0.0110137255 0.7856428122
0.1816392588 0.0115257314 0.7655226164
0.1693285928 0.0119212238 0.7472115232
0.1871707410 0.0454588386 0.7804587418
0.1678716556 0.0102388955 0.7447046020
0.1663645002 0.0411485123 0.7485391801
0.1391885640 0.0131268466 0.6877242900
0.1341787548 0.0195743684 0.6764716499
0.1373332946 0.0197412955 0.6850649121
0.1238781316 0.0183698470 0.6481730507
0.1320324090 0.0214296579 0.6713266210
0.1238959472 0.0033909089 0.6412439296
0.1237002870 0.0130769262 0.6457393823
0.1184283946 0.0129301602 0.6237319883
0.1120173015 0.0195518018 0.6007075752
0.1216934839 0.0044390464 0.6326634712
0.1112875256 0.0131455806 0.5938589626
0.1118627645 0.0044247613 0.5890499171
0.1107137609 0.0016869158 0.5763179195
0.1043424628 0.0202180166 0.5431099669
0.1074880661 0.0146449234 0.5634724709
0.1174507673 0.0110504925 0.4122601213
0.1195452628 0.0060772122 0.4062623601
0.1146715939 0.0067960185 0.4261489762
0.1122727387 0.0081992262 0.4353631675
0.1131059652 0.0204159183 0.4252201151
0.1621295886 0.0239595086 0.2932612408
0.1594532422 0.0150319805 0.3008191500
0.1596520124 0.0415374816 0.2935735965
0.1446553208 0.0133651455 0.3302549499
0.1464255981 0.0065743534 0.3285349809
0.1481730659 0.0207646436 0.3214543015
0.1871108368 0.0153833638 0.2564437157
0.1877145008 0.0382108948 0.2510485915
0.1824697077 0.0070215683 0.2650267262
0.1910718759 0.0437705094 0.2449359714
0.1814479145 0.0321492329 0.2616081317
0.1678884354 0.0279028714 0.2827052756
0.1716916044 0.0172384338 0.2791242150
0.1792058612 0.0466879022 0.2620931309
0.2049166587 0.0141095917 0.2331914334
0.2094169689 0.0070118563 0.2290221158
0.2130989759 0.0276661191 0.2215387791
0.2090917071 0.0205235638 0.2273230863
0.1985620185 0.0352722736 0.2373629194
0.2151828860 0.0550738332 0.2148839595
0.1999166028 0.0411866249 0.2348689120
0.2015059987 0.0288120175 0.2349156638
0.2292415072 0.0179390732 0.1907481757
0.2289089278 0.0204658106 0.1460403056
0.2251973693 0.0486639815 0.1729639932
0.2246523028 0.0528050670 0.1711832640
0.2260194408 0.0424183809 -0.0457228372
0.2306854244 0.0069690661 0.1765406922
0.2286898581 0.0221301690 0.0736908399
0.2270219868 0.0348016441 0.0446019838
0.2241138137 0.0568961805 0.0662101535
0.2265614169 0.0383007748 0.0892692438
0.2269641716 0.0352408891 0.1284776569
0.2292672201 0.0177437227 0.1442601612
0.2238776955 0.0586900637 0.0879849534
0.2243483834 0.0551140622 0.1271984574
0.2237394587 0.0597403028 0.0533531943
0.2238578925 0.0588405147 -0.0921964649
0.2255829180 0.0457348164 0.0854872026
0.2303830726 0.0092661518 0.1870050933
0.2249769080 0.0503389133 0.0347148955
0.2242239757 0.0560592366 -0.0300219633
0.2309224736 0.0051681098 0.1878680627
0.2239319690 0.0582777260 0.0068925495
0.2253974384 0.0471439785 0.0688832923
0.2297435926 0.0141245332 0.1474184796
0.2290206757 0.0196168175 0.1137725357
0.2287423587 0.0217313012 0.1413765623
0.2259790705 0.0427250900 -0.0432752621
0.2244809735 0.0541067231 0.0910499782
0.2260015082 0.0425546219 0.0390348083
0.2240234154 0.0575829720 0.1583300073
0.2268922345 0.0357874238 0.0503312445
0.2241988491 0.0562501333 -0.0003185909
0.2294092439 0.0166647117 -0.1366802005
0.2312671434 0.0025495178 0.0918788881
0.2288835991 0.0206582427 0.0717431879
0.2273620894 0.0322177510 -0.0674890456
0.2265485512 0.0383985206 -0.1360753125
0.2279988713 0.0273798682 -0.1103911140
0.2305045832 0.0083429880 0.1472424684
0.2272183977 0.0333094333 -0.1112704719
0.2298357400 0.0134244527 -0.0954091244
0.2244015697 0.0547099846 -0.1316920798
0.2259112756 0.0432401542 -0.1118745667
0.2254664132 0.0466199496 -0.1266247449
0.2309498303 0.0049602704 0.0977399663
0.2292289772 0.0180342691 -0.0683011208
0.2267257809 0.0370520367 -0.0939740185
0.2300445473 0.0118380617 -0.1351022061
0.2315953906 0.0000556940 -0.0388376600
0.2303450232 0.0095552277 0.1199485656
0.2299704314 0.0124011496 -0.0767891996
0.2301306484 0.0111839174 0.0742727516
0.2291848872 0.0183692379 0.0758120315
0.2308896959 0.0054171350 -0.0417062192
0.2285471785 0.0232141619 -0.0925921180
0.2276678731 0.0298945916 -0.0161225116
0.2272462947 0.0330974888 0.0005253708
0.2314730356 0.0009852731 -0.0771803894
