0.2472780097 -0.5964450217 0.1235136034
0.0722027722 -0.5964450217 -0.1584846225
-0.2318978760 -0.5964450217 -0.2062410336
-0.0817440986 -0.5964450217 -0.0728325450
0.1241780107 -0.5964450217 -0.0382837752
-0.0143502597 -0.5964450217 -0.0469983268
-0.2195152315 -0.5964450217 -0.2084599960
0.2189461652 -0.5964450217 -0.3002698754
-0.1084410758 -0.5964450217 -0.1406974094
0.2617884929 -0.5964450217 0.1180238444
0.1830136006 -0.5964450217 -0.1451565183
0.0022355740 -0.5964450217 -0.2614656209
-0.0374250557 -0.5964450217 -0.1602040464
-0.0201790767 -0.5964450217 -0.0153511470
0.0348444001 -0.5964450217 -0.2215005298
0.1845958073 -0.5964450217 0.0587163124
-0.1177465514 -0.5964450217 -0.3182675585
0.2848377689 -0.5964450217 0.1960913271
0.0554965974 -0.5964450217 -0.2714917912
0.2680172048 -0.5964450217 0.3229926057
0.2726294612 -0.5964450217 0.2184440265
-0.1736003977 -0.5964450217 -0.3262667343
-0.2998327285 -0.5964450217 -0.3250100610
0.1978699882 -0.5964450217 0.1047581970
0.0973187380 -0.5964450217 0.0407029948
0.2382228174 -0.5964450217 -0.2443076887
-0.2234288805 -0.5964450217 -0.3099670875
0.0155644759 -0.5964450217 -0.0622641588
0.2522866442 -0.5964450217 -0.2183023182
0.2509800632 -0.5964450217 -0.2024282923
0.1644774666 -0.5964450217 -0.0239652584
-0.1554826882 -0.5964450217 -0.2572955154
0.2199377558 -0.5964450217 -0.0981377621
0.1177341198 -0.5964450217 -0.1448202678
-0.1864365901 -0.5964450217 -0.2269736131
0.1388352266 -0.5964450217 0.0339158689
0.0781303497 -0.5964450217 -0.3340571269
0.1992047553 -0.5964450217 -0.0475767907
0.1050907539 -0.5964450217 -0.0751901842
0.0476459782 -0.5964450217 -0.0820711270
0.1407732077 -0.5964450217 -0.1049274046
0.2943192927 -0.5964450217 0.1559655527
0.2641218092 -0.5964450217 0.3080179470
-0.1341993311 -0.5964450217 -0.1168935376
0.0288972702 -0.5964450217 -0.1649102996
-0.3755853139 -0.5964450217 -0.3253214740
-0.1959935915 -0.5964450217 -0.1066183718
-0.1024326051 -0.5964450217 -0.2852083793
0.2458094843 -0.5964450217 -0.3188630041
0.2828826025 -0.5964450217 -0.3535483301
0.1763060341 -0.5964450217 -0.0400343595
0.0563219304 -0.5964450217 -0.0211169994
0.2876903518 -0.5964450217 0.2258151275
-0.0318252177 -0.5964450217 -0.3199293649
0.1230946810 -0.5964450217 0.1639585580
-0.0733359380 -0.5964450217 -0.1536460220
-0.0049145021 -0.5964450217 -0.0984252249
-0.0208835292 -0.5964450217 -0.0781264587
0.2262191232 -0.5964450217 0.2446009010
0.0923780067 -0.5964450217 -0.1159680114
0.0890525102 -0.5964450217 0.1010548558
-0.1484963073 -0.5964450217 -0.2145779132
-0.2075303115 -0.5964450217 -0.2716482130
-0.2586263295 -0.5964450217 -0.2927723628
-0.1672836526 -0.5964450217 -0.1183180106
0.0667185426 -0.5964450217 -0.2832415514
0.1591257188 -0.5964450217 0.1995011724
-0.0313751757 -0.5964450217 0.0073260409
-0.1188166529 -0.5964450217 -0.2610707771
0.2111795369 -0.5964450217 -0.2681255339
-0.3219466196 -0.5964450217 -0.3227291299
-0.0661269330 -0.5964450217 -0.0240360978
-0.1421824172 -0.5964450217 -0.0546319460
0.2145309304 -0.5964450217 -0.1371365605
-0.2163695960 -0.5964450217 -0.2233716764
0.0986751132 -0.5964450217 0.0573663430
0.1397750710 -0.5964450217 -0.0486086061
0.2649496295 -0.5964450217 -0.3191773832
0.1250461022 -0.5964450217 -0.3012090546
0.0484826728 -0.5964450217 -0.2842730049
0.0144961780 -0.5964450217 0.0346448863
0.2329929236 -0.5964450217 -0.1093214604
0.2983925841 -0.5964450217 0.2164002099
0.0509895511 -0.5964450217 -0.0539927782
0.2850793242 -0.5964450217 0.3273618173
0.2625779899 -0.5964450217 -0.0580495435
0.1377986375 -0.5964450217 0.1661476539
-0.1581623864 -0.5964450217 -0.1190555676
0.1271451810 -0.5964450217 -0.3197404679
0.2211766473 -0.5964450217 -0.1088814318
-0.2745090271 -0.5964450217 -0.2471027213
0.1287153021 -0.5964450217 -0.1488720404
-0.0218435908 -0.5964450217 -0.3229326662
-0.2367579336 -0.5964450217 -0.2780803967
0.2914346497 -0.5964450217 -0.2920179893
-0.0595227698 -0.5964450217 -0.2186345168
0.2583671332 -0.5964450217 -0.0745770200
0.2641683283 -0.5964450217 0.0891615383
0.1323050948 -0.5964450217 0.0885828346
0.2282382887 -0.5964450217 -0.1394921902
-0.0244631429 -0.5964450217 -0.2853136779
0.0865404098 -0.5964450217 -0.1550936236
0.2479642333 -0.5964450217 -0.0159657272
-0.0185823921 -0.5964450217 -0.3140918162
0.1455264572 -0.5964450217 -0.0378774736
0.2383092999 -0.5964450217 -0.3041495462
0.0683682218 -0.5964450217 0.0672264422
-0.1444174330 -0.5964450217 -0.0450580670
0.1116947411 -0.5964450217 -0.1405869731
-0.0887034936 -0.5964450217 -0.1938743821
-0.0632134587 -0.5964450217 -0.1272322882
0.0216043678 -0.5964450217 -0.2335623281
0.2309970247 -0.5964450217 -0.1073566001
0.1875007354 -0.5964450217 -0.1487431106
-0.4062669743 -0.5964450217 -0.3177265458
0.1205062966 -0.5964450217 -0.3386959675
0.1463393785 -0.5964450217 -0.0784528633
-0.0211058656 -0.5964450217 -0.2840042844
0.2288302898 -0.5964450217 0.0978800506
0.1922597334 -0.5964450217 -0.2933755628
0.0781346593 -0.5964450217 0.0703953427
0.0411899619 -0.5964450217 0.1215063042
-0.0137146124 -0.5964450217 -0.2071810741
0.0690164620 -0.5964450217 -0.2765295623
-0.2590541190 -0.5964450217 -0.3060381334
-0.3323618024 -0.5964450217 -0.2202262696
-0.3576784980 -0.5964450217 -0.2578008885
-0.3071181409 -0.5964450217 -0.2781397602
0.0453498731 -0.5964450217 0.1238397641
-0.1045571826 -0.5964450217 -0.1852198527
0.0597776388 -0.5964450217 0.0181616230
-0.0608120923 -0.5964450217 -0.0266974178
0.0023786783 -0.5964450217 -0.3087890311
0.2837233946 -0.5964450217 -0.3583821477
0.2717770822 -0.5964450217 -0.0148226400
0.0147780761 -0.5964450217 0.0589619124
-0.1597953733 -0.5964450217 -0.2797835330
0.2074752692 -0.5964450217 0.0666956563
0.2923580085 -0.5964450217 -0.1955564926
-0.1343532505 -0.5964450217 -0.3072136124
0.0863014219 -0.5964450217 -0.1554777095
0.0462456203 -0.5964450217 -0.1775330721
0.0489702311 -0.5964450217 -0.1259807705
0.1277938450 -0.5964450217 0.0088224500
0.0678628435 -0.5964450217 0.1012307596
0.1025827475 -0.5964450217 -0.3371876223
0.1808216353 -0.5964450217 -0.2238951121
0.1729094517 -0.5964450217 0.0793716717
-0.1870834630 -0.5964450217 -0.3334976875
-0.1437912680 -0.5964450217 -0.2385084896
0.1476471078 -0.5964450217 -0.1985544652
-0.1826574269 -0.5964450217 -0.2190537233
-0.3300605919 -0.5964450217 -0.2510970255
0.2280902719 -0.5964450217 -0.1946648402
-0.1474088845 -0.5964450217 -0.2833059929
-0.0768306966 -0.5964450217 -0.2398966490
-0.0683835579 -0.5964450217 -0.2783601484
-0.2638606614 -0.5964450217 -0.1800561096
0.0708715265 -0.5964450217 -0.1018399411
0.1396283484 -0.5964450217 -0.0060385889
0.2037302141 -0.5964450217 -0.1253867139
-0.0953244080 -0.5964450217 -0.1929301130
0.1298853854 -0.5964450217 -0.2521396856
0.0256843191 -0.5964450217 -0.2468214413
0.0515256472 -0.5964450217 -0.0140710086
-0.2228014688 -0.5964450217 -0.2606251751
-0.1362782345 -0.5964450217 -0.1916391424
0.0013886981 -0.5964450217 -0.0303734516
0.1836806987 -0.5964450217 -0.0026753638
0.1508790052 -0.5964450217 -0.0160352950
-0.1649485851 -0.5964450217 -0.0741912937
0.1965337817 -0.5964450217 -0.1239530103
-0.0613403349 -0.5964450217 -0.2814388678
0.2449754253 -0.5964450217 0.0863058279
0.2357376896 -0.5964450217 0.1766414418
0.0183390967 -0.5964450217 -0.0909262774
0.2925732817 -0.5964450217 -0.1345965974
0.0131725935 -0.5964450217 -0.0403336509
0.0578157585 -0.5964450217 -0.1625430882
-0.0476102755 -0.5964450217 -0.2966706677
-0.2633029865 -0.5964450217 -0.3009591938
0.2313006039 -0.5964450217 0.1152108305
-0.0842981208 -0.5964450217 -0.1763829926
-0.0920417489 -0.5964450217 -0.0432693804
0.0249374014 -0.5964450217 0.0570754206
-0.1379138775 -0.5964450217 -0.1452642559
-0.2309055193 -0.5964450217 -0.1529708068
0.2571169958 -0.5964450217 0.0036236320
0.3026716456 -0.5964450217 -0.2318756243
-0.1014426767 -0.5964450217 -0.0391536753
0.1657340032 -0.5964450217 -0.3050956072
0.1417476145 -0.5964450217 0.1864632427
-0.2977397647 -0.5964450217 -0.2683776214
-0.1487354521 -0.5964450217 -0.3307590192
0.1673053329 -0.5964450217 -0.0381799283
-0.2461415183 -0.5964450217 -0.1957857674
-0.2548588408 -0.5964450217 -0.1727262083
-0.2253058082 -0.5964450217 -0.3276411265
0.2870038552 -0.5964450217 0.1392786818
-0.1619063230 -0.5964450217 -0.2079274887
-0.1255721536 -0.5964450217 -0.0844054579
0.1031651522 -0.5964450217 0.1249943823
0.2144862739 -0.5964450217 -0.1361511209
0.0046783730 -0.5964450217 -0.0174184791
0.1045443904 -0.5964450217 -0.2226950295
-0.1349447541 -0.5964450217 -0.1391388532
-0.0746979714 -0.5964450217 -0.2226959640
0.1540654020 -0.5964450217 -0.0093354594
0.3031658426 -0.5964450217 -0.0572763040
0.1295592705 -0.5964450217 0.1501215793
-0.0125060064 -0.5964450217 -0.1283827455
-0.2514265393 -0.5964450217 -0.2300453779
-0.2463469816 -0.5964450217 -0.2763429193
0.0269178535 -0.5964450217 -0.0007882085
0.1789697753 -0.5964450217 -0.0423456655
-0.1942345082 -0.5964450217 -0.1293775233
0.3040274796 -0.5964450217 0.2086245353
0.1112709082 -0.5964450217 0.1460557610
0.2294957374 -0.5964450217 0.2205376148
0.2528538231 -0.5964450217 -0.1136740419
0.2889152101 -0.5964450217 -0.3390475662
0.2393544017 -0.5964450217 0.0856392390
0.1468984296 -0.5964450217 -0.2073825267
0.2276789331 -0.5964450217 -0.1851198249
-0.0547780536 -0.5964450217 -0.1465983039
-0.1924471740 -0.5964450217 -0.1992966240
0.0641867040 -0.5964450217 -0.3104392338
0.1333759102 -0.5964450217 -0.2726862851
0.2963991433 -0.5964450217 -0.0182596746
0.0645296984 -0.5964450217 -0.1142017305
0.2980674849 -0.5964450217 0.2849926389
0.0717170929 -0.5964450217 0.0798119136
0.0780864802 -0.5964450217 -0.2524282608
-0.2786019275 -0.5964450217 -0.1785433580
-0.3280852166 -0.5964450217 -0.2581952331
0.1678077889 -0.5964450217 -0.1522017127
0.2766118141 -0.5964450217 0.2679320012
-0.1090084441 -0.5964450217 -0.1333018855
0.2683069129 -0.5964450217 -0.1295944479
0.2033869636 -0.5964450217 -0.0675238207
0.2883975819 -0.5964450217 0.3025952739
0.1809834795 -0.5964450217 0.0824170751
0.0396630436 -0.5964450217 -0.1448591526
0.2102007648 -0.5964450217 -0.2104970276
-0.1475948072 -0.5964450217 -0.2658985107
0.0887434304 -0.5964450217 0.1058352644
0.2210011542 -0.5964450217 0.0237756720
0.2771426260 -0.5964450217 0.2608538012
0.2464932794 -0.5964450217 -0.2909781577
-0.1352930683 -0.5964450217 -0.1302767238
0.2839928510 -0.5964450217 -0.1695723490
-0.1767369574 -0.5964450217 -0.3336968307
0.2411832531 -0.5964450217 -0.2418382338
-0.4392628057 -0.5964450217 -0.3097794338
0.0938163498 -0.5964450217 -0.0186060876
0.2229390170 -0.5964450217 -0.1135987245
-0.0961935726 -0.5964450217 -0.2111234363
0.0965780061 -0.5964450217 0.0810848894
0.1620112439 -0.5964450217 0.1719285938
0.0672345032 -0.5964450217 -0.2246326753
-0.0245924529 -0.5964450217 0.0537239597
0.2638687574 -0.5964450217 -0.3545910744
-0.0526767938 -0.5964450217 -0.1357090103
0.1722473739 -0.5964450217 0.1166233448
-0.2752252989 -0.5964450217 -0.2310416336
-0.0436390552 -0.5964450217 0.0362788729
-0.0961361944 -0.5964450217 -0.1618735268
0.2137383268 -0.5964450217 -0.1639034424
-0.0766355553 -0.5964450217 -0.2834303509
0.0394308021 -0.5964450217 -0.2697193138
-0.2514656813 -0.5964450217 -0.1990199025
0.1136010805 -0.5964450217 -0.1595588880
0.1933573212 -0.5964450217 0.2404273846
-0.0360339676 -0.5964450217 -0.2188998318
0.0680211966 -0.5964450217 -0.0228195103
-0.0442954812 -0.5964450217 -0.1572173777
0.1234522260 -0.5964450217 -0.2221318611
-0.0375091778 -0.5964450217 -0.0659776954
0.1087137541 -0.5964450217 -0.1284154801
-0.2752436482 -0.5964450217 -0.2713371872
0.3027130448 -0.5964450217 -0.2058535100
-0.1389008877 -0.5964450217 -0.3157256050
0.2501714179 -0.5964450217 -0.0507080408
0.0711622795 -0.5964450217 -0.1674275355
-0.1584595570 -0.5964450217 -0.1502626471
-0.1289007248 -0.5964450217 -0.1396242510
-0.0437057425 -0.5964450217 -0.2595283178
0.1773894803 -0.5964450217 -0.3257224445
0.1612229098 -0.5964450217 -0.1438916737
-0.1907527838 -0.5964450217 -0.2479690683
0.0439473966 -0.5964450217 -0.0644639280
0.1979137514 -0.5964450217 0.1290228060
0.1843036508 -0.5964450217 -0.0616772915
0.2088956323 -0.5964450217 0.1798670620
0.0790829602 -0.5964450217 0.0753745749
-0.0328570003 -0.5964450217 -0.0263921945
0.1557407613 -0.5964450217 -0.2660785953
-0.3294265182 -0.5964450217 -0.2109048211
0.1484785545 -0.5964450217 -0.2856903714
0.1267048525 -0.5964450217 -0.0709649470
0.2060462985 -0.5964450217 -0.1506187088
-0.1318188415 -0.5964450217 -0.0371982533
-0.3757736542 -0.5964450217 -0.2604982241
-0.0034662579 -0.5964450217 0.0267587597
0.2825366481 -0.5964450217 0.2333998535
-0.0874423830 -0.5964450217 -0.2564814119
-0.3059906934 -0.5964450217 -0.2663419376
0.1241422536 -0.5964450217 0.0822323138
0.2320290190 -0.5964450217 -0.1391601285
0.0734779661 -0.5964450217 0.1254211001
0.2942534864 -0.5964450217 -0.1359974197
0.2343370706 -0.5964450217 0.1363631675
0.2526208657 -0.5964450217 -0.1745987814
0.0138398547 -0.5964450217 -0.1291338878
-0.1194367651 -0.5964450217 -0.2401765384
0.0251367344 -0.5964450217 -0.1215494638
0.2343647722 -0.5964450217 0.1434395705
0.2034706180 -0.5964450217 -0.0630392837
0.0972944325 -0.5964450217 -0.2210273318
0.1992303885 -0.5964450217 -0.0383507104
0.0439780865 -0.5964450217 -0.1252672435
0.1249649838 -0.5964450217 -0.0900720713
-0.1300773672 -0.5964450217 -0.2148465687
-0.1192318401 -0.5964450217 -0.0214748247
-0.0498801757 -0.5964450217 -0.0135571439
-0.0398726152 -0.5964450217 -0.0093260387
0.1122520978 -0.5964450217 0.0264038042
0.2024619240 -0.5964450217 -0.1139473591
-0.0451929612 -0.5964450217 -0.1609710377
0.1051988599 -0.5964450217 0.0435253944
0.1969311255 -0.5964450217 -0.2076773019
0.1837300163 -0.5964450217 0.0992993127
-0.1259078140 -0.5964450217 -0.2231351357
0.1076040404 -0.5964450217 -0.2668580988
0.2628963621 -0.5964450217 0.0823065651
0.0306984461 -0.5964450217 -0.1867875786
-0.1206579666 -0.5964450217 -0.2261579326
0.1957387944 -0.5964450217 -0.2035003756
0.3025835061 -0.5964450217 0.2355393352
0.1969367210 -0.5964450217 0.1070628395
0.2926290745 -0.5964450217 -0.1503721832
0.2162145342 -0.5964450217 -0.3404539100
0.2450435351 -0.5964450217 -0.0511328229
0.0119996075 -0.5964450217 -0.0300574046
0.1653368778 -0.5964450217 -0.3298856282
-0.3741160261 -0.5964450217 -0.2570537409
-0.0934256987 -0.5964450217 -0.2486660473
-0.1769773990 -0.5964450217 -0.0843036038
0.1441459061 -0.5964450217 0.0945284847
0.1899770021 -0.5964450217 -0.3515199885
0.1536566254 -0.5964450217 0.0713980392
0.0128525821 -0.5964450217 -0.2290671794
0.2845164619 -0.5964450217 0.0638732701
0.2470277475 -0.5964450217 -0.2335161569
-0.0527895040 -0.5964450217 -0.0206194946
-0.1661428528 -0.5964450217 -0.1223302946
0.1865040556 -0.5964450217 -0.1867485958
-0.3900749029 -0.5964450217 -0.2996522641
0.1260234119 -0.5964450217 -0.2461599612
-0.1967272823 -0.5964450217 -0.3290642847
0.1466025564 -0.5964450217 -0.2929403704
0.1067090307 -0.5964450217 -0.0463283944
-0.0028718524 -0.5964450217 -0.1533297537
-0.0738754183 -0.5964450217 -0.0116489312
0.1641480779 -0.5964450217 -0.3401317309
0.0873930745 -0.5964450217 -0.2828224673
0.2611015620 -0.5964450217 -0.0023765035
0.1574176971 -0.5964450217 -0.1323483680
0.1478765703 -0.5964450217 0.0462122487
0.0381038575 -0.5964450217 0.0993271033
0.2955710820 -0.5964450217 0.3149373959
0.1351950048 -0.5964450217 -0.1801713540
0.2586479426 -0.5964450217 0.2478933088
0.0924345205 -0.5964450217 0.0003502318
0.0155953102 -0.5964450217 -0.0591598837
0.0988278899 -0.5964450217 -0.2638926712
-0.3356976683 -0.5964450217 -0.2618332339
-0.3234774674 -0.5964450217 -0.3213258713
0.1991372955 -0.5964450217 0.1149476361
0.1423251850 -0.5964450217 0.0890869504
0.2297395469 -0.5964450217 -0.1132827592
-0.1166002998 -0.5964450217 -0.1657097260
-0.0268810300 -0.5964450217 -0.1264263841
0.0974255313 -0.5964450217 -0.0063850176
0.2495916271 -0.5964450217 0.1247993872
-0.0083054131 -0.5964450217 -0.2084724056
0.0517028145 -0.5964450217 -0.1992626081
0.1350372301 -0.5964450217 0.0529034969
-0.4433287949 -0.5964450217 0.2845037381
-0.3318590328 -0.5964450217 0.0000159574
-0.1315440724 -0.5964450217 0.2390740263
-0.1007550282 -0.5964450217 0.1792068653
0.0602539569 -0.5964450217 0.2811222473
-0.2887940631 -0.5964450217 -0.1011347648
-0.3635863360 -0.5964450217 0.2262107389
-0.2463391721 -0.5964450217 -0.0773548087
-0.2793251916 -0.5964450217 0.1220593433
-0.3194433082 -0.5964450217 0.2174510930
-0.1264455285 -0.5964450217 0.1509243370
-0.0968699640 -0.5964450217 0.2721612923
-0.2595618828 -0.5964450217 0.2727817241
0.1516335786 -0.5964450217 0.2774824464
-0.3971956202 -0.5964450217 -0.1826464492
0.1573963162 -0.5964450217 0.2364828869
-0.0573439329 -0.5964450217 0.2774701768
-0.3381073194 -0.5964450217 0.0536495794
0.0958791311 -0.5964450217 0.2957628474
-0.4008233438 -0.5964450217 0.0058160926
0.2364157198 -0.5964450217 0.3509769464
-0.4136940890 -0.5964450217 0.2887071884
-0.2799587674 -0.5964450217 -0.0613940938
-0.3005682006 -0.5964450217 -0.1649897444
-0.4294167457 -0.5964450217 0.1925407765
-0.4077749790 -0.5964450217 0.0066661184
-0.0506149122 -0.5964450217 0.2541877803
-0.1573260390 -0.5964450217 0.0442259745
-0.2815484626 -0.5964450217 0.0345931228
-0.0100057896 -0.5964450217 0.1452687571
0.0622086924 -0.5964450217 0.2971082648
-0.0617799972 -0.5964450217 0.1493435392
-0.1915716573 -0.5964450217 0.2101021158
-0.3597238482 -0.5964450217 0.2195081433
-0.2479710262 -0.5964450217 0.2706427052
-0.0263896464 -0.5964450217 0.2048328640
0.1565201219 -0.5964450217 0.2349266929
-0.4492154164 -0.5964450217 0.0303419897
-0.1805748955 -0.5964450217 0.2849118898
-0.0098322711 -0.5964450217 0.1461874818
-0.0659203525 -0.5964450217 0.2930963682
0.0551199759 -0.5964450217 0.3181760852
-0.4290296624 -0.5964450217 -0.0642722624
-0.2336611570 -0.5964450217 0.2223516794
-0.3237601570 -0.5964450217 0.2845211275
-0.4250983571 -0.5964450217 0.0533904609
-0.1701374505 -0.5964450217 0.3087470674
-0.3466902814 -0.5964450217 0.0711498206
-0.1030409961 -0.5964450217 0.3262873854
-0.4251090583 -0.5964450217 0.0677584362
-0.3984223945 -0.5964450217 0.2006431712
-0.1396169825 -0.5964450217 0.2704616449
-0.0441476848 -0.5964450217 0.1420171216
0.0182623710 -0.5964450217 0.3301955916
-0.3452635592 -0.5964450217 0.2226706390
-0.1673417332 -0.5964450217 0.1676282572
-0.2365590362 -0.5964450217 0.1199536498
-0.2514004854 -0.5964450217 -0.0710253409
-0.2273760523 -0.5964450217 0.1078459260
-0.2437300081 -0.5964450217 0.3236573248
-0.2993326065 -0.5964450217 0.1978467230
-0.3590680805 -0.5964450217 0.2327813138
-0.0852026233 -0.5964450217 0.3252091263
-0.0758903121 -0.5964450217 0.0881495732
-0.3663959231 -0.5964450217 -0.0280552251
-0.3547510750 -0.5964450217 -0.1981220774
-0.0329534047 -0.5964450217 0.3414614818
-0.3883810860 -0.5964450217 -0.1334442189
-0.4224315405 -0.5964450217 0.0059852882
-0.4517247178 -0.5964450217 0.1287839511
-0.2511917939 -0.5964450217 0.0969415107
0.2723772547 -0.5964450217 0.3361872766
-0.1583427308 -0.5964450217 -0.0376806010
-0.1900372350 -0.5964450217 0.1585577006
-0.0546772480 -0.5964450217 0.0541430252
0.0829474699 -0.5964450217 0.2755392887
-0.3900949747 -0.5964450217 0.3086958147
-0.3808440389 -0.5964450217 0.0047806843
0.0794928277 -0.5964450217 0.3182581048
-0.2745201501 -0.5964450217 -0.0107851079
-0.0633666722 -0.5964450217 0.3283606874
-0.4336194745 -0.5964450217 -0.3018007040
-0.2596985475 -0.5964450217 0.2005271465
-0.2290314191 -0.5964450217 -0.0459008126
-0.1667195274 -0.5964450217 0.0419299194
-0.4315179638 -0.5964450217 0.0284601788
-0.2658354483 -0.5964450217 -0.0398428051
-0.1306295433 -0.5964450217 0.0511749795
-0.1931014289 -0.5964450217 0.1131043136
-0.4085728554 -0.5964450217 -0.2340320382
-0.2809378673 -0.5964450217 0.2660602411
-0.1853201874 -0.5964450217 0.1395735220
-0.1966990684 -0.5964450217 -0.0292243510
0.0701380453 -0.5964450217 0.2773395460
-0.0190905741 -0.5964450217 0.2296931510
-0.3885605085 -0.5964450217 -0.1654443161
0.0380048173 -0.5964450217 0.2659163772
0.0846488006 -0.5964450217 0.2199419331
-0.3981799932 -0.5964450217 -0.1095962931
-0.4350906099 -0.5964450217 -0.2758059452
-0.2643309949 -0.5964450217 0.3139387812
-0.3610223415 -0.5964450217 0.1936332187
-0.2639907498 -0.5964450217 0.1595623791
-0.4134154590 -0.5964450217 0.2940406027
-0.2735268860 -0.5964450217 0.1575137011
-0.3752311506 -0.5964450217 0.2046514647
0.1946754377 -0.5964450217 0.3375952084
-0.1752371079 -0.5964450217 -0.0543011941
-0.3791173749 -0.5964450217 0.3002412860
-0.2712913528 -0.5964450217 -0.0069360028
0.0345648116 -0.5964450217 0.3161528849
-0.2442644418 -0.5964450217 0.0268785446
-0.2630249104 -0.5964450217 0.2300431377
-0.0149956650 -0.5964450217 0.1790769708
-0.0187228735 -0.5964450217 0.3051469900
-0.2186351974 -0.5964450217 0.2980271202
-0.3691300472 -0.5964450217 -0.0189058285
-0.0190750441 -0.5964450217 0.1255892670
-0.2553328146 -0.5964450217 0.2371630817
-0.2884031681 -0.5964450217 0.1766753529
-0.2770076011 -0.5964450217 0.2919256292
-0.3313029172 -0.5964450217 -0.0357508979
-0.1955484925 -0.5964450217 -0.0242982271
-0.2019377728 -0.5964450217 -0.0683911209
-0.3343209951 -0.5964450217 -0.0457825096
-0.0734286644 -0.5964450217 0.2116467308
-0.0960313204 -0.5964450217 0.1754213157
0.0747950652 -0.5964450217 0.2379158775
-0.3962156259 -0.5964450217 -0.2548207064
-0.3992706972 -0.5964450217 0.1064462991
-0.3289601444 -0.5964450217 -0.0714385824
0.2038534121 -0.5964450217 0.3099183070
-0.2483507499 -0.5964450217 0.0294249724
-0.3087097685 -0.5964450217 0.1972972144
0.0290061475 -0.5964450217 0.2996746018
-0.1660859122 -0.5964450217 0.2346676204
-0.0808263409 -0.5964450217 0.2219946700
-0.1296973535 -0.5964450217 0.1239210432
-0.0092550720 -0.5964450217 0.2038177502
-0.3555349791 -0.5964450217 -0.1510728513
-0.3591339260 -0.5964450217 0.0189978481
-0.3897281740 -0.5964450217 0.0198005233
-0.1869966379 -0.5964450217 -0.0750431861
-0.1682352008 -0.5964450217 0.1139243615
-0.4111428750 -0.5964450217 -0.1018401484
0.0484755608 -0.5964450217 0.3364927873
-0.0407902649 -0.5964450217 0.0742046611
-0.0790264114 -0.5964450217 0.2748509935
-0.3107042847 -0.5964450217 0.1001313139
-0.4131578028 -0.5964450217 -0.1058622035
-0.2904981983 -0.5964450217 0.1938938736
-0.4060981255 -0.5964450217 0.2808579368
-0.2036861279 -0.5964450217 0.0935240710
-0.4010566508 -0.5964450217 -0.0235092569
-0.2577208994 -0.5964450217 0.2441468476
0.2172340569 -0.5964450217 0.3049800713
-0.1185942583 -0.5964450217 0.2093594409
-0.4030178613 -0.5964450217 -0.0075931968
-0.3308299182 -0.5964450217 -0.1987754858
-0.1640046055 -0.5964450217 0.1629848774
-0.2004178491 -0.5964450217 -0.0705102106
-0.4183064086 -0.5964450217 -0.1001578452
-0.4513182044 -0.5964450217 -0.3140205063
-0.2762553270 -0.5964450217 0.1985340796
-0.2947819346 -0.5964450217 -0.1410971205
-0.4220741521 -0.5964450217 -0.1534903474
-0.2820384524 -0.5964450217 -0.0307306592
0.1498119634 -0.5964450217 0.2244670127
-0.1288437744 -0.5964450217 0.0378008858
-0.4490571334 -0.5964450217 0.0968577247
-0.4517082580 -0.5964450217 0.2790020037
0.1447936417 -0.5964450217 0.3362468189
-0.2781318136 -0.5964450217 0.2676098754
-0.3102964633 -0.5964450217 -0.1076654549
-0.2482664524 -0.5964450217 0.2532659556
-0.3923902460 -0.5964450217 0.2974974509
-0.3818461688 -0.5964450217 0.1769749207
-0.4318891326 -0.5964450217 -0.2705912524
-0.4016177225 -0.5964450217 0.1010808085
-0.3169391440 -0.5964450217 0.1540791003
-0.3545204621 -0.5964450217 -0.2184025633
0.0485275535 -0.5964450217 0.1700119112
-0.3291963277 -0.5964450217 -0.2058665264
0.2249973020 -0.5964450217 0.3328807508
-0.4007479897 -0.5964450217 -0.1327362358
-0.1151213425 -0.5964450217 0.1825236249
-0.0637483943 -0.5964450217 0.2190333404
-0.0993141893 -0.5964450217 0.2881478687
-0.4003054981 0.2258336629 0.1952908233
-0.4019536050 0.2275993741 -0.1982281161
-0.3973475809 0.2226646770 0.3037459339
-0.3961082227 0.2213368817 0.0692943705
-0.4033029562 0.2290450111 -0.0270552497
-0.3954318199 0.2206122127 0.0396657937
-0.4062325751 0.2321836794 0.0672341827
-0.3928386148 0.2178339637 0.3836785863
-0.3971595386 0.2224632165 0.0252755222
-0.3955565135 0.2207458041 0.1761877523
-0.3896572077 0.2144255403 0.3805515692
-0.3904204017 0.2152431938 0.3261689574
-0.4063226026 0.2322801310 -0.1265970979
-0.4008935418 0.2264636677 0.0236052741
-0.3798167051 0.2038828472 0.0686143906
-0.3830988187 0.2073991632 -0.2073762554
-0.3863664048 0.2108999150 -0.1129123612
-0.3978930380 0.2232490564 -0.2347676859
-0.3899968440 0.2147894122 -0.3581037250
-0.4053368981 0.2312240894 -0.3779843854
-0.3796783832 0.2037346550 -0.1040031254
-0.3937042495 0.2187613678 -0.2632544272
-0.3843697589 0.2087607941 -0.3135198156
-0.3982335622 0.2236138794 -0.3919960571
-0.3794401181 0.2034793880 -0.0024727227
-0.4005910595 0.2261396011 -0.2612097171
-0.3962092833 0.2214451537 -0.2753966792
-0.3814814099 0.2056663407 -0.1487705668
-0.3869548934 0.2115303965 0.0015905136
-0.3862588256 0.2107846593 0.0923560364
-0.3828212372 0.2071017743 0.1152903160
-0.3852657396 0.2097207095 0.0942195154
-0.3810084035 0.2051595818 0.2601342450
-0.3799022351 0.2039744803 -0.2735855461
-0.3917136291 0.2166287023 -0.3143264746
-0.3953020419 0.2204731741 -0.2455735518
-0.3818702005 0.2060828742 -0.0325448860
-0.4034227945 0.2291734008 -0.3279110438
-0.3915547297 0.2164584642 -0.1883732146
-0.3781205381 0.2020656464 -0.1240527019
-0.3815570538 0.2057473822 0.0780036008
-0.3875927571 0.2122137764 -0.3993294080
-0.3958684788 0.2210800303 0.0965758012
-0.4027014371 0.2284005693 0.0934614177
-0.3853899893 0.2098538253 0.3254585037
-0.3881464246 0.2128069520 0.3351580557
-0.4005699675 0.2261170040 0.2557052821
-0.3964237356 0.2216749087 -0.0544416786
-0.3907912150 0.2156404673 0.0871626091
-0.4020627923 0.2277163527 0.1079220816
-0.4038113843 0.2295897193 -0.0837691260
-0.3982526709 0.2236343517 0.2682349374
-0.4053222120 0.2312083554 -0.1465701344
-0.4046956114 0.2305370424 0.2864989963
-0.4012621784 0.2268586092 0.2369526527
-0.4046620927 0.2305011318 -0.1529608174
-0.3640576488 0.2325606250 0.0734630483
-0.3611412673 0.2392721825 0.3652158523
-0.3767489351 0.2033537810 -0.3705525163
-0.3739698803 0.2097493044 0.0670204634
-0.3754358518 0.2063756197 -0.1757846118
-0.3722065530 0.2138073033 0.0906827123
-0.3753026195 0.2066822311 0.3567799204
-0.3653359595 0.2296188096 0.3014284189
-0.3540346503 0.2556268569 0.3056961829
-0.3619955434 0.2373062109 0.3437255429
-0.3739915490 0.2096994376 0.2713740112
-0.3588222205 0.2446090756 0.3276733325
-0.3737550542 0.2102436903 0.2533782406
-0.3669707953 0.2258565121 0.0417312903
-0.3762167557 0.2045785016 -0.3254792502
-0.3649380933 0.2305344312 0.0327729210
-0.3592352023 0.2436586682 0.3296399881
-0.3698396320 0.2192543709 0.3345947585
-0.3761985610 0.2046203736 -0.0080203952
-0.3666435887 0.2266095227 0.0206742081
-0.3772494277 0.2022019819 -0.0554717195
-0.3746648314 0.2081499923 0.2448297218
-0.3648293030 0.2307847936 -0.4031423470
-0.3665764442 0.2267640444 -0.1260551620
-0.3523587118 0.2594837453 0.1870219997
-0.3614371090 0.2385913531 -0.2739028701
-0.3661649245 0.2277110871 -0.0866988254
-0.3520621251 0.2601662893 -0.3004831131
-0.3582553196 0.2459137019 -0.1938937600
-0.3699770577 0.2189381088 -0.3554358701
-0.3582544983 0.2459155920 -0.2861784776
-0.3564301286 0.2501140698 -0.1154493704
-0.3632835190 0.2343421535 -0.3332702548
-0.3616196580 0.2381712474 -0.1856828484
-0.3542906507 0.2550377153 0.0747202432
-0.3560211168 0.2510553409 -0.3670095433
-0.3507667397 0.2631473992 -0.3987979167
-0.3526023093 0.2589231470 0.1211192046
-0.3612252617 0.2390788838 -0.1651751216
-0.3548569412 0.2537344939 -0.2729060911
-0.3611137336 0.2393355468 -0.0923736734
-0.3677399523 0.2240864276 -0.3797408017
-0.3665622059 0.2267968114 -0.3981319373
-0.3676154252 0.2243730057 -0.3969675015
-0.3593950235 0.2432908668 0.0135327020
-0.3729871462 0.2120109004 -0.3487780392
-0.3681926941 0.2230445192 -0.1929591508
-0.3647368110 0.2309976482 -0.2106467057
-0.3660052762 0.2280784906 -0.3424822210
-0.3608463103 0.2399509761 -0.2094796053
-0.3517690098 0.2608408444 -0.0963129018
-0.3605217074 0.2406979947 -0.1748565486
-0.3501862424 0.2644833154 -0.3906072667
-0.3642031492 0.2322257805 -0.1509015711
-0.3569605650 0.2488933601 0.0921185205
-0.3500175875 0.2648714459 -0.3777422277
-0.3614197361 0.2386313337 -0.1412432271
-0.3502778170 0.2642725720 0.2831379579
-0.3530923973 0.2577952925 -0.2284072602
-0.3644095236 0.2317508448 -0.2655443506
-0.3603127390 0.2411789000 -0.1935229540
-0.3623490885 0.2364925869 -0.2601087358
-0.3646397217 0.2312210828 -0.2329787085
-0.3501630957 0.2645365834 0.0856418003
-0.3619458184 0.2374206446 -0.3380006580
-0.3496553817 0.2657050013 0.2020718397
-0.3573706761 0.2479495590 0.2116593512
-0.3716043337 0.2151932089 0.2953268844
-0.3735992724 0.2106021957 0.0061520662
-0.3620650068 0.2371463528 0.2655825270
-0.3741440019 0.2093485932 0.2336980271
-0.3715030390 0.2154263216 0.3259395647
-0.3739086270 0.2098902686 0.2022183481
-0.3596309345 0.2427479575 0.2736596856
-0.3684473842 0.2224583931 0.2349656341
-0.3735778936 0.2106513954 0.2019569479
-0.3715000416 0.2154332196 0.2877292346
-0.3619562146 0.2373967196 0.3618926279
-0.3701349848 0.2185746664 -0.0078207737
-0.3629669320 0.2350707248 0.2593155700
-0.3772314751 0.2022432969 0.2388001847
-0.3763310777 0.2043154090 0.3477969962
-0.3648372968 0.2307663973 0.2242771479
-0.3737845088 0.2101759055 0.2246457592
-0.3564435701 0.2500831363 0.3167292038
-0.3597737784 0.2424192264 0.1497157949
-0.3607135940 0.2402564002 0.3019959872
-0.3757285692 0.2057019800 -0.2929074030
-0.3598371322 0.2422734284 0.2059691167
-0.3965565178 0.2480891006 0.4098813495
-0.4076518914 0.2340364010 0.4006017852
-0.4026628076 0.2455179097 0.2743774270
-0.4031740476 0.2443413797 -0.1135857768
-0.4066447279 0.2363542125 -0.2507548485
-0.3975635734 0.2572529105 0.2580502703
-0.4041515916 0.2420917322 0.0756471044
-0.4051120123 0.2398814909 0.2681165012
-0.4038387929 0.2428115840 0.2746120106
-0.4065115143 0.2366607806 0.0906645693
-0.4048173245 0.2405596638 0.4085918434
-0.3957412022 0.2614467809 0.3805788288
-0.3961203936 0.2605741377 0.1007536898
-0.4000064622 0.2516310268 -0.3631571784
-0.3960556374 0.2607231628 -0.2111229576
-0.3987711691 0.2544738390 0.0235942987
-0.3980380485 0.2561609886 0.0662591381
-0.4010775165 0.2491661815 -0.2094362971
-0.4035990662 0.2433632734 -0.3679035687
-0.3943157472 0.2647272176 -0.0317039953
-0.3937860359 0.2659462562 0.0622881208
-0.4067792297 0.2360446801 -0.3750297471
-0.3952632880 0.2625466174 0.0311707458
-0.3966870174 0.2592701517 0.0789427647
-0.3982198493 0.2557426056 -0.1579273463
-0.3953315381 0.2623895515 0.1774416412
-0.3980211415 0.2561998971 -0.0078732147
-0.4002272875 0.2511228358 -0.1097389854
-0.4044176868 0.2414793605 -0.3427699152
-0.4029499649 0.2448570671 -0.2071643283
-0.3996261753 0.2525061910 -0.2350308962
-0.3976118571 0.2571417939 0.1195687290
-0.4018425869 0.2474055050 -0.3815969918
-0.3961887811 0.2604167557 -0.1911159371
-0.4043824618 0.2415604247 0.2533497961
-0.4061065118 0.2375928233 -0.2624161919
-0.4065739433 0.2365171110 -0.1288215384
-0.4002405297 0.2510923610 0.3385183426
-0.4058640798 0.2381507384 -0.1702846899
-0.4050671788 0.2399846675 0.1345787420
-0.4033106557 0.2440269999 0.2367641498
-0.4053766737 0.2392724189 0.0289948708
-0.4037525999 0.2430099422 0.3590067992
-0.4017892116 0.2475283391 -0.0501675118
-0.4075235840 0.2343316781 -0.1283133452
-0.3999498377 0.2517613380 0.0573467069
-0.3993788680 0.2463393319 -0.4114919403
-0.3765127391 0.2661474096 -0.2442130611
-0.3712865046 0.2661474096 -0.2300880420
-0.3887870270 0.2661474096 0.0606905392
-0.3927753140 0.2661474096 0.0223268683
-0.3748337675 0.2661474096 -0.0388752666
-0.3887570085 0.2661474096 -0.3410811823
-0.3837650066 0.2661474096 -0.0383964833
-0.3854988491 0.2661474096 -0.1193831434
-0.3826344371 0.2661474096 -0.3259598026
-0.3892275820 0.2661474096 -0.2954398561
-0.3936015321 0.2661474096 0.2116315469
-0.3891475603 0.2661474096 0.1245679495
-0.3884495648 0.2661474096 0.0414855931
-0.3653284464 0.2661474096 -0.1632697726
-0.3728555170 0.2661474096 0.2279953210
-0.3584960576 0.2661474096 -0.1235821331
-0.3610368554 0.2661474096 0.1512397748
-0.3510263706 0.2661474096 -0.1621528175
-0.3630638799 0.2661474096 0.3427453986
-0.3726507467 0.2661474096 0.1778142394
-0.3674112562 0.2661474096 0.3258591848
-0.3503128415 0.2661474096 -0.1795616367
-0.3635160682 0.2661474096 -0.0570671248
-0.3504213760 0.2661474096 0.0282807122
-0.3500656654 0.2661474096 -0.1354569085
-0.3741385206 0.2661474096 0.1727169826
-0.3500770497 0.2661474096 0.2336404685
-0.3616182090 0.2661474096 0.1740510238
-0.3527532778 0.2661474096 -0.1098455449
-0.3775325570 0.2661474096 0.1739903734
-0.3513356447 0.2661474096 -0.2462820911
-0.3592507402 0.2661474096 0.0194128788
-0.3783048234 0.2661474096 0.1632933719
-0.3720316837 0.2661474096 0.1642112384
-0.3663384887 0.2661474096 0.1434732478
-0.3701903098 0.2661474096 0.2509243111
-0.3515804868 0.2661474096 0.2884810721
-0.3611176237 0.2661474096 0.3726003641
-0.3603893467 0.2661474096 0.3289496629
-0.3708042869 0.2661474096 0.0712431938
-0.3599264330 0.2661474096 0.1170508599
-0.3642508666 0.2661474096 0.1241791472
-0.3913782021 0.2661474096 -0.1519480768
-0.3694555647 0.2661474096 -0.1287248589
-0.3568307937 0.2661474096 -0.3431507865
-0.3805389153 0.2661474096 -0.1173629174
-0.3887492377 0.2661474096 -0.2281573738
-0.3920329269 0.2661474096 -0.1149156533
-0.3883621032 0.2661474096 0.2150866746
-0.3709263651 0.2661474096 -0.2107878363
-0.3641379885 0.2661474096 -0.2190596333
-0.3807363059 0.2661474096 -0.2870978149
-0.3822042643 0.2661474096 0.1572286896
-0.3677200747 0.2661474096 -0.3317705419
-0.3709509168 0.2661474096 -0.0953943606
-0.3904588890 0.2661474096 0.3012043810
-0.3624954944 0.2629043588 0.4074334071
-0.3775313415 0.2311800139 0.4087630941
-0.3806429298 0.2202441894 -0.4104840490
-0.3641350728 0.2398579192 -0.4091745139
-0.3381702809 0.1411250933 0.4071122310
-0.1159173321 -0.1118614928 0.3946942640
-0.2983069096 0.1023723127 0.4047763903
-0.0902617704 -0.1187574349 0.3928951946
-0.3417995112 0.1117491016 0.4078641822
-0.3941557920 0.2096398759 0.4101618508
-0.2861635204 0.0697665955 0.4044057529
-0.4149831429 0.2412108788 0.4111966571
-0.3966564648 0.1996926259 0.4105112579
-0.3881048413 0.1809733262 0.4101807167
-0.3698259789 0.1748110439 0.4089194035
-0.4139711143 0.2213906501 0.4114460811
-0.0557960809 -0.1566742709 0.3909479387
0.1158659422 -0.3365250633 0.3811017990
-0.0581925746 -0.1641088934 0.3912483999
-0.3790057788 0.2008148819 0.4091773700
-0.0725121890 -0.1273728213 0.3917135343
0.1678889271 -0.3872766590 0.3780563684
0.3133063816 -0.5426963596 0.3697657986
-0.3268530730 0.1224032747 0.4065756139
-0.2491449304 0.0357679939 0.4022040118
-0.1584634331 -0.0542040682 0.3969202032
-0.2725861295 0.0488691503 0.4037363439
-0.3910286369 0.1719064485 0.4105472297
-0.3646992911 0.1717231955 0.4085879240
-0.3697496261 0.1695881921 0.4089993145
-0.0295718022 -0.1859691870 0.3894735982
-0.1372101181 -0.0727952497 0.3956409133
-0.2869929739 0.1025849764 0.4039296844
-0.1417670497 -0.0566932951 0.3957166304
-0.1263051673 -0.1005329376 0.3952827898
0.0294729894 -0.2459994911 0.3860569132
-0.1975531193 -0.0017253778 0.3989734166
-0.2151374126 0.0112984819 0.4000705041
-0.2395312752 0.0133148410 0.4018555153
-0.0682316024 -0.1510443356 0.3917824766
0.2020685224 -0.4317678967 0.3762381882
-0.4231665334 0.2102291951 0.4123143439
-0.4438195038 0.2292075448 0.4135425450
-0.5188268941 0.2961882148 0.4180349970
-0.1301420922 -0.0751772023 0.3951531776
-0.1549770727 -0.0596592614 0.3967497766
0.1951773465 -0.4203388937 0.3765644639
-0.0755863961 -0.1477594285 0.3922767856
-0.1801514112 -0.0098874425 0.3572664394
0.1682292972 -0.3829091622 0.1863231564
0.0407321372 -0.2463941121 0.1813672050
-0.3738110765 0.1974697954 0.0950281884
-0.4191007502 0.2459628133 0.1080633204
-0.0243097182 -0.1767518380 -0.0111959531
-0.2796134746 0.0966095852 -0.2288167038
-0.2543190539 0.0695260869 -0.0177382494
-0.1401536137 -0.0527142892 -0.0598263634
-0.3583302627 0.1808940216 0.1592658653
-0.1491773158 -0.0430523395 -0.1457979998
0.2842951372 -0.5071843538 0.2946976269
-0.0820224546 -0.1149570725 0.3759064711
-0.0720878723 -0.1255943290 -0.0643589994
-0.0175505846 -0.1839890460 0.0505560737
-0.1705794810 -0.0201363965 -0.0912284550
-0.4374844044 0.2656467458 -0.0355801095
-0.2755497152 0.0922583956 -0.2224492704
-0.2927665916 0.1106930238 -0.1091383266
-0.4287256813 0.2562685171 0.1976275343
-0.3331070493 0.1538867673 0.3410372861
-0.4020675022 0.2277248017 0.2436886524
0.2322753208 -0.4514851691 0.3559218089
0.0212525504 -0.2255367316 0.1004632709
-0.2344942921 0.0482991173 0.3489951789
-0.2693340930 0.0856031416 0.2307636623
0.2440846564 -0.4641297806 0.3733967665
-0.0912940803 -0.1050296636 0.2000721654
0.1748756252 -0.3900255859 0.2214878199
-0.2681809445 0.0843684309 -0.1970490167
-0.2801862319 0.0972228537 -0.1624816338
-0.4332950534 0.2611610815 -0.1434448944
0.0126487876 -0.2163244236 0.0139172951
0.1032426861 -0.3133260400 0.1126590807
-0.3625979313 0.1854635431 0.2868943481
0.0850106584 -0.2938044586 0.3097873059
-0.3625585088 0.1854213321 0.2102775906
-0.2014772660 0.0129467927 -0.1489617640
-0.0301306117 -0.1705192320 0.2922684293
-0.4059353486 0.2318662213 0.2015942110
-0.2193747521 0.0321101703 0.0760410555
-0.3854572396 0.2099396930 -0.1322383103
-0.2281190042 0.0414729044 -0.1206013969
-0.1456534322 -0.0468254678 0.3662805591
0.0600194505 -0.2670456194 0.2772202235
-0.0861457248 -0.1105421629 -0.0486514236
-0.3870267774 0.2116202444 0.0979744562
-0.3512179957 0.1732787031 0.1818168533
-0.2707330131 0.0871010076 0.0837546421
-0.3482459703 0.1700964660 0.2293314982
0.3723942797 -0.6015147597 0.3316456246
-0.3595396567 0.1821889563 0.1946624238
-0.2383939916 0.0524746430 0.3626766063
-0.2665418006 0.0826133501 -0.0685150552
-0.0895206510 -0.1069285277 0.3735514840
-0.2551843217 0.0704525552 0.0465187367
-0.0717927786 -0.1259102948 0.0360880550
-0.1416349622 -0.0511281647 0.2279448289
-0.0923759703 -0.1038712513 0.3395888258
-0.2849254722 0.1022973011 0.2949666268
-0.1754840716 -0.0148849036 0.3920682138
-0.3693081486 0.1926483748 -0.0140767689
-0.2807350887 0.0978105312 0.3653918557
-0.3962307608 0.2214752268 0.2579021393
-0.4118428471 0.2381915579 -0.3308072310
-0.3048027299 0.1235804797 0.2564141043
0.1012145187 -0.3111544200 0.0882576913
-0.2415329763 0.0558356485 -0.2243857133
0.1359309617 -0.3483263614 0.3077598775
-0.3042647758 0.1230044761 -0.1172069820
-0.0770188652 -0.1203145665 0.2446833922
-0.0391728558 -0.1608374288 0.2566911835
0.0621170600 -0.2692915932 0.0614858269
0.0019796526 -0.2049006593 0.2862617770
-0.3063315231 0.1252174047 0.3603606623
-0.3261360106 0.1464226661 0.3492034800
-0.1356694163 -0.0575156545 0.0121452830
0.0714548638 -0.2792898609 0.0551482734
0.0294413275 -0.2343047020 0.0983041018
-0.1632799854 -0.0279521863 0.3796569360
-0.1178949298 -0.0765473326 0.3822745593
-0.2282610470 0.0416249939 -0.0331170290
-0.2074000371 0.0192884822 0.2316316535
-0.2443903933 0.0588951710 0.3671015391
-0.2973075405 0.1155551546 0.1727192789
-0.4078982305 0.2339679381 0.3152561326
-0.1661864194 -0.0248401799 -0.1182269499
-0.2475084579 0.0622337767 0.3022012211
-0.2377365293 0.0517706783 -0.1446194665
-0.3228751475 0.1429311617 0.3312308426
-0.4223734797 0.2494670234 -0.2901635508
-0.0093026669 -0.1928203400 0.2529917357
-0.3640485454 0.1870167593 0.3320304365
-0.2411872977 0.0554655200 0.0045192273
-0.4124036447 0.2387920208 0.0855353566
-0.1771241334 -0.0131288400 0.0742529097
-0.1698711878 -0.0208947874 0.1686521686
-0.1835031598 -0.0062986242 0.0488847297
-0.4137821444 0.2402680219 -0.0630052198
-0.3445171818 0.1661039398 0.1716198648
-0.1548031057 -0.0370286368 -0.0705576845
0.0698078121 -0.2775263131 0.2548818553
0.0583186546 -0.2652245260 0.3479414287
-0.2535725428 0.0687267750 -0.1321002604
-0.1260360132 -0.0678304294 0.0787360190
-0.2264587333 0.0396952024 0.0146230682
-0.3893861033 0.2141464458 0.0005921132
-0.1532980298 -0.0386401669 0.0628707919
0.0931567619 -0.3025267371 0.1473150024
0.2657474549 -0.4873247915 0.3549980567
-0.0080883750 -0.1941205189 0.3229681785
0.2659174148 -0.4875067727 0.3424601349
0.0252401218 -0.2298063445 0.3000178276
-0.0825958878 -0.1143430803 0.0406314558
-0.1641753945 -0.0269934448 0.3277967376
-0.4130969275 0.2395343396 0.1602203585
0.0195667524 -0.2237316969 0.2832361346
0.2115541138 -0.4292983486 0.3350782963
0.1480484404 -0.3613009109 0.2565363214
0.1598690273 -0.3739575694 0.2958343974
0.3294997982 -0.5555863461 0.3262130337
-0.1882448423 -0.0012215620 -0.0229414191
0.2390568709 -0.4587463792 0.2897692547
-0.2394980484 0.0536567899 0.0447907293
-0.3744200861 0.1981218803 0.2622801763
0.0400321884 -0.2456446558 0.3829309102
-0.3719871799 0.1955168944 0.3544353621
-0.4011837811 0.2267785748 -0.3245254816
-0.0231118003 -0.1780344848 0.3735045662
-0.2135753992 0.0259006284 -0.1619534350
-0.4301462524 0.2577895653 0.4073972851
0.1470952444 -0.3602802953 0.3601445574
-0.0989754490 -0.0968049907 -0.0786329200
-0.3495269031 0.1714679994 -0.2266918203
-0.0862759723 -0.1104027030 -0.0073038903
-0.0855039387 -0.1112293426 0.0814881214
-0.0089120205 -0.1932386169 0.1572064169
0.2344413207 -0.4538043705 0.2935155507
-0.4361819935 0.2642522152 -0.3515596244
-0.1267272235 -0.0670903297 0.2329369137
-0.3827526147 0.2070437697 -0.0729685099
-0.2717280055 0.0881663759 0.1467655137
-0.0951219548 -0.1009310430 0.3074782880
0.3932514316 -0.6238471406 0.3541691849
-0.4097057424 0.2359032955 0.1361195142
-0.3900153666 0.2148202169 0.1064385760
0.0824467124 -0.2910591644 0.2657234961
-0.1676637167 -0.0232583931 0.3858219472
-0.2762589703 0.0930178164 -0.1001137451
-0.2799889562 0.0970116247 0.3249670238
-0.1249567393 -0.0689860405 0.2162657001
-0.0396202197 -0.1603584228 0.2714045570
0.3506004064 -0.5781794030 0.3412862896
0.2120687831 -0.4298494206 0.2684389916
-0.0295921563 -0.1710957724 0.0137228717
-0.2345814015 0.0483923879 -0.1538425298
-0.3146030886 0.1340740190 -0.1122014859
-0.4119852282 0.2383440096 0.0258908236
0.2809307486 -0.5035820015 0.2608912108
-0.0104889530 -0.1915501477 0.1720515663
-0.3614085804 0.1841900691 -0.3199183599
-0.2799645725 0.0969855163 0.0993546224
-0.3806457060 0.2047878391 0.4054635055
-0.2051825171 0.0169141167 -0.0765152844
0.0766019159 -0.2848009647 0.2330446769
-0.3560225563 0.1784230909 -0.1396338562
-0.1076266264 -0.0875419145 -0.0534298259
-0.2569495925 0.0723426839 -0.1213367840
-0.1592076841 -0.0323125221 0.1976033396
-0.1204520249 -0.0738093739 0.3099005171
0.1266375279 -0.3383756018 0.1767682236
0.0529056801 -0.2594286911 0.2461839134
-0.4093300738 0.2355010559 0.0421764716
-0.2938459691 0.1118487458 0.0378885224
0.1773905670 -0.3927184098 0.3156374725
0.1623656098 -0.3766307355 0.2663043919
0.0863712113 -0.2952612437 0.1192505002
-0.2122641204 0.0244966027 0.1812646295
-0.3074702843 0.1264367106 0.2776239995
-0.2435913030 0.0580395609 0.1034114757
-0.4238520729 0.2510501977 -0.1500505433
-0.3984549220 0.2238567032 -0.0324872570
-0.1219833387 -0.0721697501 0.2899784667
-0.4376221024 0.2657941831 0.1390841167
-0.2555444457 0.0708381508 0.1160422885
-0.4278088125 0.2552867980 -0.3622147587
0.1930473365 -0.4094825845 0.3300371872
-0.4271028326 0.2545308841 -0.0021075792
0.2715559541 -0.4935441266 0.3537829467
-0.4011308354 0.2267218843 -0.0983176829
-0.2006667428 0.0120789412 0.3492988087
-0.1358345527 -0.0573388379 0.3740916215
-0.1390594119 -0.0538858841 -0.1226006771
-0.3687061857 0.1920038350 -0.2487159200
-0.1541226042 -0.0377572702 -0.0448489395
0.0912157786 -0.3004484678 0.1435216184
-0.2782171270 0.0951144738 0.3732957120
-0.1466511514 -0.0457571798 0.0958913754
-0.2647479399 0.0806926094 0.0693817443
-0.3805770726 0.2047143512 0.1770447350
-0.2913445083 0.1091703564 -0.0905225275
-0.4009725076 0.2265523579 -0.1541293989
-0.2359590758 0.0498675053 0.1839783978
-0.3180962357 0.1378142369 -0.1007348306
-0.2498119376 0.0647001817 -0.2092870072
-0.3360903827 0.1570811122 0.2069418202
-0.2569924853 0.0723886105 0.0580267656
-0.3643726912 0.1873638318 -0.1645172275
0.2206961194 -0.4390869694 0.2648381313
0.2326022883 -0.4518352631 0.2916204776
-0.1286657208 -0.0650147222 0.1040017929
-0.2772133154 0.0940396624 0.3774311579
-0.2161092103 0.0286136564 -0.0433942920
-0.4274417670 0.2548937913 0.1959905456
-0.3910968649 0.2159782097 0.3614448352
-0.1811764413 -0.0087899118 0.1415249571
-0.0085078705 -0.1936713525 0.0295590546
0.2268629621 -0.4456899937 0.2900268165
-0.2137918419 0.0261323802 0.2518968572
0.0836560914 -0.2923540830 0.1617255735
-0.3230408282 0.1431085610 -0.2116578737
-0.2261851689 0.0394022888 0.1461298559
-0.3901662024 0.2149817214 -0.3199121118
0.0289641886 -0.2337938150 0.2213892544
-0.2300090428 0.0434966257 0.1404105512
-0.1399171420 -0.0529674866 0.1290848956
-0.4354902940 0.2635115917 -0.0435035331
-0.3739565574 0.1976255661 0.3519212889
-0.2145981293 0.0269956964 0.0129841830
-0.4207649068 0.2477446760 0.2057788027
-0.0068856663 -0.1954082953 0.3385987938
-0.1031256402 -0.0923612560 0.2309927987
-0.0484771021 -0.1508750920 0.3043853202
-0.3085812611 0.1276262669 0.0071536101
-0.2868205652 0.1043264342 -0.1333069167
0.1224732614 -0.3339167963 0.1852803955
-0.3486305935 0.1705082937 0.0642917710
-0.2060033142 0.0177929689 -0.1148723405
-0.3951395144 0.2203067963 0.2123005285
0.0703065762 -0.2780603549 0.2033779369
-0.2140076723 0.0263634763 0.3593408453
0.2158322300 -0.4338790565 0.2553805894
0.1839530428 -0.3997450503 0.1856845917
-0.4300188536 0.2576531556 -0.1892105296
0.1504481500 -0.3638703523 0.1617047585
0.0075594776 -0.2108751460 0.0486805916
-0.1311756934 -0.0623272190 0.1833675371
-0.1733270533 -0.0171944881 0.1313078672
-0.2014821848 0.0129520594 0.0257066412
-0.3593590624 0.1819955885 0.3106852086
-0.1101277104 -0.0848639284 0.2434972338
-0.1241351428 -0.0698657485 -0.1139529787
-0.2430042999 0.0574110390 0.1964585184
-0.0020414082 -0.2005951884 0.2709752506
-0.0457693974 -0.1537743130 -0.0507193669
-0.3917338522 0.2166602512 -0.1169708363
-0.1711593567 -0.0195155061 0.0191525608
-0.3875201184 0.2121484796 0.0883245958
-0.0709323298 -0.1268316032 0.2369809538
-0.1233218121 -0.0707366063 0.1189525472
0.0118711777 -0.2154918133 0.1249972407
-0.0213471136 -0.1799239880 0.3425538589
0.2651295062 -0.4866631352 0.3231087595
-0.1416175096 -0.0511468517 0.1057169375
-0.4363711208 0.2644547194 0.1656171356
-0.2389306587 0.0530492686 -0.0427927192
-0.3696690045 0.1930347541 -0.2816066932
-0.2989767612 0.1173424396 -0.2019026135
0.0401748711 -0.2457974305 0.0386265827
-0.1005342894 -0.0951358933 0.1879896571
-0.4138849760 0.2403781268 0.1843654934
-0.2232714620 0.0362824949 -0.1544758099
-0.2028371632 0.0144028757 0.2348555947
-0.1322664679 -0.0611592939 0.3118019647
-0.0479999053 -0.1513860410 0.3549212764
-0.3223320667 0.1423496687 0.1540537750
-0.2242107137 0.0372881800 0.2677201354
-0.2525619979 0.0676447542 -0.2339662870
0.1397964554 -0.3524652619 0.1287274086
-0.3378108778 0.1589232981 -0.0783026062
0.0481868340 -0.2543760805 0.0362281515
0.0041534195 -0.2072281771 0.3640069140
0.2760175491 -0.4983212908 0.2709942566
-0.0676000362 -0.1303995904 0.0223154086
-0.1747913262 -0.0156266469 -0.1288664379
0.0886934310 -0.2977477142 0.1901114547
0.1017037844 -0.3116782915 0.2354427053
-0.1345726727 -0.0586899708 0.0690179026
0.1120618592 -0.3227689943 0.3524658114
-0.2143555692 0.0267359799 -0.1168985897
-0.3817036074 0.2059205660 0.0922190927
-0.2919926501 0.1098643413 -0.0773376380
0.0717261337 -0.2795803179 0.3640457041
-0.2923915436 0.1102914487 -0.1593562998
-0.1475197387 -0.0448271573 0.0288443490
0.2036883421 -0.4208762299 0.3148598174
-0.3564921032 0.1789258489 0.2694186271
-0.1723114372 -0.0182819388 -0.0721043610
-0.2319201885 0.0455429470 -0.1412681727
-0.2971005338 0.1153335063 -0.0645210948
-0.2046048153 0.0162955540 0.0441736931
0.2187486368 -0.4370017411 0.2568399720
-0.3979397413 0.2233050837 -0.0367745087
-0.1046470928 -0.0907321908 0.1630877912
